ply
format ascii 1.0
element vertex 1187
property float x
property float y
property float z
property uchar red
property uchar green
property uchar blue
end_header
  1.66838 0.0972996   4.84065 147 140 128
0.206041 0.116994  4.55861  59  80 111
-0.216172  0.138636   4.44187 132 126 118
0.728079 0.159074  4.96082 135 133 128
-0.480648   0.17639   4.28241 146 143 140
 0.56835 0.183861  4.88859 53 72 98
 0.67443 0.180484   4.9115 101  76  65
0.994028 0.188499  5.10232 131 127 123
-0.214273  0.202178   4.42235 127 123 117
-0.477647  0.245157   4.26551 142 142 141
 1.24404 0.260229  5.13957 121 118 123
-0.21138 0.269874  4.40326 126 124 120
-0.652175  0.293975   4.15626 135 130 119
 1.14355 0.334215  5.15838 137 139 135
-0.477578    0.3114   4.26164 141 142 138
 1.14578 0.391187  5.15217 123 123 130
-1.00148 0.316572  3.32215 158 151 138
0.339518 0.402675  4.47548 129 120 115
  1.3393 0.437114  4.95325 120 130 131
-0.428382  0.410963   4.26904 87 78 79
0.326793 0.458153   4.4661 146 140 127
0.681521 0.504229  4.85723 84 72 63
0.949558 0.526512  5.00706 70 60 53
  1.2035 0.532476   5.1266 58 52 47
-0.808279    0.3942   3.39981 159 156 151
-0.977688  0.411701   3.33918 108 119 135
-0.845655  0.421369   3.37569 74 71 66
 1.52302 0.539708  4.65077 152 147 142
-0.205879  0.532246   4.35188 112 112 109
 1.68122 0.566615  4.77175 125 114 104
 1.83102 0.575462  4.86958 148 135 116
 -1.0059 0.441545  3.31308 40 48 59
-1.12164 0.443426  3.23788 147 126 107
0.632104 0.613606  4.80549 113 109 111
0.747155 0.615755  4.86009 130 130 128
0.890865 0.629253  4.95741 128 125 126
-0.802763  0.474454   3.38098 135 116  96
-1.08495 0.467111  3.24792 99 83 85
0.138386   0.6735  4.37181 96 78 54
-0.840807  0.550697   3.34993 92 78 75
-1.00939 0.565013  3.30342 54 57 69
1.15799 0.84773 5.05194 106 115 122
-0.736172  0.746244   4.04798 111 111 113
 1.15801 0.899589  5.03866 109 118 125
-0.0618746   0.798101    4.22306 119 127 135
0.692218 0.970844  4.73957 116 130 139
-0.396836  0.870793   4.13592  99 110 122
-0.892228  0.816789   3.26772 120 126 136
-0.793848 -0.228226   3.52723 99 89 89
  1.48541 -0.221575    4.9266 251 249 249
  0.179304 -0.0173192    4.54629 125 122 114
-0.436471 0.0837104   4.33605 103  90  93
-0.647182 0.0957259   4.20011 123 117 109
-0.848658  0.107954   3.45013 84 81 82
-0.786324  0.112456   3.46155 81 75 72
-0.373323  0.187093   4.32649 143 138 131
-0.0722664   0.184818    4.36838 153 156 157
-0.812916  0.166097    3.4542 147 149 149
-0.431443  0.213923   4.30625 88 78 80
-0.638961  0.227019   4.18302 129 123 111
-0.372261   0.25315   4.32384 148 144 131
-0.733129  0.236164   3.47608 147 135 119
-0.0626823    0.29826    4.30489 155 157 161
-0.316407  0.326379      4.33 64 73 94
 1.74875 0.355541  4.83084 54 68 86
 1.28273 0.433651  5.03898 31 43 59
-1.16483 0.334874  3.24314 100  84  83
-1.08928 0.340853  3.26881 92 85 87
0.0702033  0.434881   4.31431 154 151 144
-1.00888 0.364905  3.32967 34 43 56
-0.845905  0.363481   3.38726 89 79 82
-0.945518  0.370131   3.36412 42 50 65
-1.17015 0.402957  3.24557 97 80 79
-1.08648 0.402637  3.25821 94 82 81
-0.943086  0.448732   3.34464 34 42 56
-1.17088 0.462843  3.23229 118  91  88
-0.942765  0.510332   3.33887 41 47 57
 1.52659 0.666324  4.67262 156 152 151
 -1.1672 0.531069  3.21965 102  78  71
-1.08333 0.528801  3.23086 79 70 62
 1.74962 0.842695  4.73673  55  66 113
 1.91957 0.878268  4.86901 90 71 68
-0.369746 -0.805479   5.02416 254 252 247
0.00787171  -0.728046    5.09092  93 102 123
-0.454696 -0.211789   4.42045 55 68 98
-0.739556 -0.127669   3.54131 171 169 163
  1.04937 -0.182837   5.22371 127 126 125
  1.56345 -0.170114   4.88832 52 58 78
 -0.737429 0.00443859    3.52162 172 171 170
-0.900022  0.060022    3.4456 168 160 152
-0.833833  0.226884   3.42814 98 83 78
-0.139864  0.406308   4.32002 76 64 55
-0.0541457   0.436046    4.30275 134 132 124
-0.88702 0.451794  3.35178 150 141 134
0.197449 0.908723  4.40667  76 107 156
1.35861 1.07132 4.83012  97 102 116
-0.713439  0.810158    3.3929 126 132 135
-0.793173  0.793776   3.31561 117 118 127
-0.117274  -1.06796   5.29639  78  83 117
-0.451455 -0.716476   4.94535  75  88 115
  1.17731 -0.598413   5.78685 202 238 255
-0.315658 -0.313193   4.50181 136 136 135
 -0.156658 -0.0370954     4.4341 81 69 65
0.053732 0.152048  4.41966 156 152 146
-0.557522  0.303999   4.20483  69  82 103
0.191956 0.343079  4.45624 40 57 77
-0.0490149   0.545724    4.30162 135 135 137
 0.18226 0.580798  4.43727 67 77 98
-0.12667 0.813636  4.22609 54 57 62
-1.02951  0.76296  3.20761 155 145 140
    1.73778 -0.00681879     4.90818 126 117 105
 1.72835 0.492199  4.76592 126 122 113
0.81268 0.56234 4.92204 128 128 127
0.949475 0.772494  4.98895 84 71 72
-0.975097  0.619551   3.30861 133 149 163
-0.264616   1.03109    4.1729 36 47 66
 -0.317645 -0.0110116    4.34058 142 133 126
-0.971143  0.486944   3.31378 120 125 162
 1.52976 0.673787  4.64617 148 145 144
0.901095 0.559564  4.92476 124 120 113
-0.00158014    0.585423     4.32305 143 138 132
-1.13492 -1.04926   3.8887 241 255 250
 -1.09754 -0.923063    3.8411 118 131 151
-0.967213 -0.990389   4.80549  85  93 155
 0.229975 -0.879131   5.25869 37 55 91
-0.975683 -0.822723   4.74975 40 59 54
-0.650911 -0.800548   4.92834 115 138 153
 -0.29993 -0.792151    4.9792 67 70 88
-0.0755937  -0.786579    5.11849 157 156 176
 0.19929 -0.79207  5.27413 154 160 164
-0.0438029  -0.774159    5.13343 77 84 95
-0.891977 -0.750454   4.74629  90 108 130
   0.2002 -0.762822   5.27144 137 141 157
 -0.44357 -0.726532   4.99209 54 69 90
 0.223253 -0.724765   5.24742 212 248 255
-0.895167 -0.705686   4.68145 42 55 77
 -0.25706 -0.726928   5.10828 40 58 75
  1.59848 -0.665954   5.27417 61 84 81
 1.56778 -0.65165  5.25838  62  48 132
    1.581 -0.642469    5.2716  80  92 117
  1.33036 -0.707846   5.88167 46 66 78
0.0172831 -0.675617   5.06393  85  96 118
0.0537411 -0.665987   5.09771  95 107 135
 -0.29892 -0.653666   4.94636 56 56 65
   -1.025 -0.536729   3.51955 92 86 93
  1.42261 -0.606893   5.38261 255 254 253
  1.59698 -0.573654   5.20863 47 62 88
-0.972316 -0.602734   4.52628 116 143 167
 0.732028 -0.631358   5.62997  70  85 111
  1.60345 -0.561524   5.22104 42 57 90
  1.63901 -0.559654   5.23995 27 50 74
  1.65613 -0.551568   5.24018 110 133 140
-0.990832 -0.472788   3.49312 102  94  80
  1.55788 -0.515065   5.15137 130 144 179
  1.32857 -0.561582   5.67823 26 42 71
 -0.12903 -0.543839   4.82608 129 157 189
-0.138033 -0.542158   4.81648  71  89 123
 0.198767 -0.555993   5.20901 79 76 91
 -1.03435 -0.448052   3.46991 150 147 137
  1.70092 -0.479414    5.2163 137 160 158
 1.71356 -0.46165  5.20851 121 146 149
  1.55135 -0.457282   5.10002 123 139 177
  -0.9363 -0.422488   3.53636 162 164 157
  1.03936 -0.496276   5.66474 135 125 153
 0.206336 -0.475911   4.95823 126 147 178
  0.16514 -0.453894   4.64712 155 149 140
 1.74221 -0.41747  5.18638 129 149 153
  1.54947 -0.390302   5.02913 43 44 99
 -1.06203 -0.377879   3.46827 139 145 141
 0.904844 -0.431405   5.53435 118 144 167
-1.27047 -0.36821  3.33129 250 255 255
1.79746 -0.3638 5.17387 199 241 249
  1.52574 -0.357816   4.98107 135 125 197
 -0.11619 -0.386625   4.68179 112 141 173
   1.5243 -0.341232   4.98296  90  76 146
 -0.96923 -0.339345   3.43582 115 139 158
   1.5417 -0.336748    4.9849 38 43 94
 -1.17785 -0.333551   3.32846 151 138 120
-0.910063 -0.333688   3.49608 128 149 166
 -0.87046 -0.362111   4.20452 132 127 127
-0.115961 -0.359973   4.62933 102 129 171
-0.249494 -0.364958   4.74589  94 104 132
0.0764361  -0.34875   4.59322 148 142 132
-0.825184 -0.357337   4.22585 122 121 117
-0.108438  -0.34615   4.62632 110 138 169
  -1.1881 -0.319285   3.32508 157 162 157
-1.20872  -0.3102  3.31351 142 142 126
-0.586702 -0.335048   4.35169 114 116 125
 0.150932 -0.320316   4.61766 161 161 157
 0.347585 -0.323005    5.0904 118 130 163
  1.70961 -0.278686    4.9529 148 145 132
-1.00869 -0.29667  3.44252 122 103  79
  1.75332 -0.271271   4.95468 157 149 145
-0.96724 -0.29283  3.45032 96 78 70
-0.928974 -0.287968   3.45337 149 140 124
  1.44443 -0.278123   5.06363 254 251 255
 0.55759 -0.30823  5.18483 39 57 77
-0.918461 -0.286432   3.47963 91 74 64
 -0.83335 -0.280204   3.51849 158 148 129
-0.795799 -0.273149   3.54464 142 124  92
 0.321691 -0.282761   4.82992 115 137 163
  1.32486 -0.244672    5.0626 155 154 143
  1.49942 -0.233485   4.88034 255 252 255
   1.8674 -0.228958   5.11547 108 126 131
  1.80815 -0.222399   4.99387 41 54 74
 0.135014 -0.247219   4.60903 158 173 191
  1.79857 -0.198213   4.98042 139 134 115
 -1.20381 -0.238183   3.32906 133 132 136
  1.88669 -0.197946   5.09642 111 134 137
   1.3559 -0.206176   5.01195 100  94  91
  1.73185 -0.193485   4.98221  77 105 150
 -1.22615 -0.232787   3.34779 147 153 152
 0.254994 -0.219274   4.64767 138 139 141
  1.23635 -0.131529   1.84747  77 104 151
-0.645147 -0.234949   4.30799 135 126 120
0.402613 -0.22153  4.97928 60 56 63
 -1.19408 -0.219914   3.32298 150 148 141
  1.90268 -0.169684   5.07633 118 139 138
  1.43714 -0.162756   4.94472 245 249 232
  1.91246 -0.155133   5.07665 106 126 124
-0.847932 -0.201534   3.53768 177 166 160
 0.734538 -0.183226   5.03693 102  93  82
 0.558207 -0.185939   4.95897 55 54 39
 -0.23829 -0.197606   4.53038  5 32 44
 0.862934 -0.170106   5.12532 135 122 110
  1.30164 -0.157479   5.11711 78 76 81
  1.80011 -0.138647    4.9774 153 155 154
-0.255583 -0.169877   4.52437 123 128 136
 -1.11111 -0.175154   3.38407 118 103 102
  -0.6725 -0.170894    4.2802 39 56 83
0.462463 -0.13945  4.89773 128 129 131
-0.705679  -0.16639   4.25981 140 144 170
 0.676991 -0.133693   5.08031  82  91 107
  1.38464 -0.114321   4.97062 255 253 242
  1.46994 -0.107174   4.72995 255 251 255
 0.953471 -0.118045   5.22684 50 68 84
-0.053681 -0.133043   4.40108  86 101 119
-0.238234 -0.135899   4.50332 22 51 79
   1.79208 -0.0841198    4.90694 125 140 164
-0.270437  -0.12959   4.46284 111 124 151
 0.231031 -0.118058   4.60046  83  87 103
-0.221063 -0.125183   4.51948 112 126 155
  0.804452 -0.0993704    5.14136  81 115 158
   1.96167 -0.0666003    5.03742 128 144 163
   1.48323 -0.0703642    4.73078 105  80  78
-0.788951 -0.119899   4.17879 130 110  83
-0.756952 -0.118022   4.17605 126 113  88
-0.537857 -0.107346   4.30026 74 65 53
 -0.323422 -0.0989136    4.41326 138 133 115
-0.0495724 -0.0927676    4.43204 163 162 149
 -0.095947 -0.0870231    4.96154 76 65 53
 0.0294279 -0.0890011    4.45437 78 67 52
   1.66895 -0.0485732    4.82984 158 143 105
-0.543554 -0.100757   4.29618 127 111  90
   1.09485 -0.0546426    5.22897  99 103 108
 -0.495458 -0.0960057    4.32708 128 111  95
 -0.034547 -0.0866176    4.43151 129 109  90
  0.967395 -0.0536966    5.18754  88 103 132
   1.81616 -0.0338892    4.91953 155 148 116
-0.988912  -0.10697   3.46657 53 81 99
   1.47688 -0.0382662    4.77386 255 252 224
 -0.806854 -0.0987172    3.52777 107  90  90
 -0.602161 -0.0879096    4.29221 147 137 119
  -0.29748 -0.0794491    4.42526 116  96  74
  0.125703 -0.0698711    4.51875 148 122  89
 -0.865084 -0.0983046    3.49594 71 71 75
 -0.251523 -0.0750697    4.46262 120 108  92
0.00871511 -0.0679103    4.46515 147 129 104
  0.331985 -0.0581002    4.61176 136 122  97
  0.358181 -0.0559522    4.63784 143 131 109
    0.7479 -0.0436598    5.01464  95 106 126
   1.43189 -0.0236034    4.84446 255 255 216
 -0.686135 -0.0760562    4.22921 98 83 89
  0.468236 -0.0441504    4.69878 143 129 112
    1.95682 -0.00380251     5.00219 140 123  87
 0.0609217 -0.0507634    4.50929 152 141 121
  0.865347 -0.0234751    5.04401 113 128 149
   1.10544 -0.0154542     5.2293 123 133 138
   -1.0456 -0.0797174    3.42695 110 129 139
 -0.839863 -0.0522359    4.13524 94 96 98
  0.522566 -0.0105071     4.8766 80 72 59
   0.573687 -0.00639842     4.88441 78 66 46
   0.26601 -0.0154068     4.5961 143 136 128
  0.465451 -0.0069223    4.83947 133 111  90
   0.598208 -0.00380352     4.89613 62 58 37
   1.4499 0.0189994   4.82234 195 161 138
   1.2907 0.0255043   5.07909 91 80 70
 -0.549802 -0.0274613    4.28813 108 107 108
 1.71663 0.033654   4.8473 127 120 104
  1.85456 0.0407601   4.96774 71 64 62
  0.420525 0.00532464    4.68864 122 114 107
  1.05836 0.0299767   5.15673 123 112 102
  1.88082 0.0423647    4.9801 79 72 71
  1.90527 0.0442169   4.99414 78 66 64
  1.58558 0.0417537   4.80232 156 134  94
  -0.199971 -0.00156497     4.48744 57 53 49
 1.10823 0.043995  5.17435 63 59 39
  -0.260282 0.000780126     4.44609 115 114 115
-0.248764 0.0011149   4.45922 101  99  99
  1.77166 0.0691591   4.89762 140 130 105
  1.89577 0.0782281   4.98068 102  86  79
-0.0177425  0.0276492    4.44509 155 147 132
  1.36262 0.0748396   4.97978 129 124 120
 0.682513 0.0787453   4.95671 104  89  86
1.12606 0.11895 5.18493 127 128 125
 1.27872 0.120545  5.10325 64 66 54
-1.12082 0.015212  3.30888 135 134 140
 -1.13889 0.0152732   3.31906 134 131 119
 -0.81609 0.0305476   3.46788 153 136 111
-0.807337 0.0361978   3.46333 112 100  98
-0.875136   0.04004   3.42232 125 115 110
-0.347471 0.0969868   4.44305  96 114 133
 1.17222 0.162856  5.20912 55 53 55
-0.0689725   0.105472    4.38209 143 139 132
 2.24018 0.193119   5.0064 205 229 255
-0.0411937   0.125659    4.40601 124 116 104
-0.543793  0.118181   4.28951  80  95 117
 -1.16805 0.0621992   3.30068 107  92  95
 1.04717 0.217267  5.15799 13 32 30
 1.06868 0.219147  5.16914  1 26 39
-0.201583  0.160757   4.46917 57 53 52
 2.32505 0.232243  4.86457 31 43 32
 1.21053 0.235473   5.2062 173 173 166
-0.787695  0.113924   3.48542 103  85  82
 1.17622 0.253546   5.1932 136 132 133
 1.25006 0.251478  5.14628 105  98  96
   1.947 0.261391  4.96668 134 135 113
1.39265 0.25752 4.92978 92 95 87
 1.78381 0.278211  4.88851 119 135 137
0.777817 0.281731  5.00551 110 124 145
 1.94912 0.304499  4.96512 143 145 127
-0.924648  0.161406   3.37474 132 133 125
-1.22729 0.150702  3.26154 127 126 127
 2.24039 0.339313  4.96383 212 232 254
-0.101605  0.262024   4.33484 96 91 91
0.741748 0.324686  4.93783 145 139 125
 1.81824 0.357471  4.86665 130 130 112
-0.537952  0.276799   4.26839  91 107 131
-0.672683  0.268785   4.17095 63 59 61
-1.14707 0.186494  3.25106 116  99  93
 1.81802 0.368503  4.84725 138 135 119
-1.07857 0.202105   3.3078 135 120 118
-0.232979  0.311238   4.41169 131 122 123
0.646857 0.363651  4.86563 85 67 61
1.53218 0.35702 4.67463 75 74 96
0.743815 0.378565  4.91441 151 144 130
0.390721 0.357262  4.61033 134 127 120
  0.7974 0.398228  4.98864  90 116 150
0.475533 0.374877  4.76932 132 123 110
0.314231 0.355237  4.54788 141 141 136
-1.23327 0.216686  3.21899 251 252 238
0.425233 0.363734  4.59952 141 139 129
 1.66363 0.399066  4.75607 71 73 76
0.916831 0.422268  5.01817 145 137 133
 1.65569 0.407686   4.7561 136 132 123
-0.922482  0.280688   3.62367 159 157 151
0.917482 0.438868  5.00612 139 133 130
 1.82908 0.440898  4.86813 140 121  90
-0.449873  0.365971   4.26154 134 135 137
-0.867497  0.341739   4.04152 119 108  94
-0.58442  0.36843  4.18313 119 113 105
-0.743147  0.297112   3.47172 154 145 124
0.652872 0.456038  4.84565 67 74 84
-0.298948  0.411334   4.32806 126 125 125
-0.862503  0.304233    3.3913 55 51 38
-0.814207  0.313917   3.41592 129 103  94
-0.745752  0.391284    4.0953 122 118 110
-0.356601  0.419983   4.28423 124 123 123
-0.398809  0.420582   4.27157 55 50 45
-0.968297  0.310033   3.32299 145 139 125
-0.362964  0.430657   4.28196 74 78 86
0.904185 0.533253  4.96754 99 94 94
-0.871053   0.33094   3.36542 155 146 126
0.989166 0.557682  5.01692 117 116 111
0.0901967  0.473479   4.35589 92 80 72
0.238146 0.493414  4.47725 103  88  78
0.334787 0.493981  4.48917 123 123 127
0.346703  0.49696  4.50247 124 125 126
0.976053 0.562529  5.01378 64 59 56
 1.06519 0.568312  5.05342 110 102  88
0.639288 0.544265  4.81793 105 102 103
0.168246  0.49185  4.39981 106  99  89
 1.03148 0.580246  4.99785 123 122 119
 0.99775 0.589065  5.01042 73 68 62
0.118552 0.512739  4.42074 112 104 103
-0.00671599     0.50272     4.32137 130 118 111
 1.35979 0.589747  4.90188 123 121 115
0.737898 0.583932  4.85803 163 161 154
-0.841641  0.381925   3.38832 112  89  85
0.218216 0.530051   4.4549 135 130 121
 1.83195 0.591797  4.80946 123 113 102
-1.10727 0.377404  3.25706 157 154 123
-0.735768  0.487856   4.07273 128 123 117
-1.10326 0.381165  3.26198 51 55 42
-0.628928  0.505411   4.13282 129 126 117
-1.02688 0.397068  3.30522 74 87 99
 1.84737 0.625567  4.83855 141 136 108
  1.2192 0.668728  5.11267 156 153 157
 1.07536 0.663674  5.05128 54 57 57
 2.26811 0.640728   4.8404 48 53 40
0.653467 0.642828  4.81584 67 63 74
-1.10226 0.412119  3.24264 139 139 117
-1.09513 0.413339  3.24307 56 58 48
0.911789 0.670435  4.95591 126 120 113
 1.65769 0.649838  4.72489 150 136 116
 1.83748 0.665904  4.82339 130 118 111
-0.832177  0.442402   3.36645 98 85 78
0.103374 0.609531  4.41843  90 110 141
-0.889008  0.547534   3.97326 117 120 112
-0.435858  0.589882   4.23571 97 87 92
0.110899 0.617426   4.4176 43 60 85
-0.829726  0.460264    3.3738 71 57 57
1.56499  0.6637 4.66495 139 132 126
 1.88882 0.690568  4.82403 142 139 133
-0.449555  0.595175   4.20566 61 57 53
 1.63551 0.676124  4.67439 147 136 119
-0.82725 0.471016  3.36851 71 57 56
-0.298971  0.629206   4.31152  85 109 137
-0.730365  0.595363   4.05213 108 106 104
 1.91798 0.727237  4.83366 113  97  85
 1.93077 0.735061  4.85207 78 64 62
-1.09875 0.478855  3.23762 66 60 42
 1.60786 0.722229  4.64635 117 109  99
 1.62253 0.733547  4.65714 134 122 106
 1.90242 0.773627  4.81408 121 113 105
-0.976904  0.526801   3.30155 30 39 79
0.924161 0.807047  4.92808 56 57 57
 1.36299 0.804905  4.86593 108 109 106
-0.617303  0.668778   4.08491 115 113 107
-1.17546 0.533741  3.18321 157 150 116
0.983139 0.876376  4.94603 62 60 58
0.132038 0.819625  4.37555 142 155 149
0.983063 0.940351  4.92867 49 52 54
 1.07429 0.990137  5.01408 56 72 97
 1.08608 0.987495  4.99713 54 71 98
-0.631496  0.819129   4.03089 101 104 102
1.30424 1.00759 4.96422 70 70 71
1.13237 1.02279 5.02554 65 64 63
-0.0401319   0.865314     4.2257 110 124 134
-0.217825  0.871023   4.23942 105 105 116
0.770893 0.985581  4.79091 76 76 85
-1.01451 0.681366  3.21832 135 117 104
1.01229 1.00368 4.71813 74 75 82
0.650803  1.00676  4.71673 74 82 95
0.222011   0.9043  4.21712 53 69 98
-0.297552  0.909785   4.21572  94 104 116
0.240827 0.910574  4.22606 110 126 144
-0.559633  0.886545    4.0615 50 62 77
0.376034 0.942248    4.342 40 54 72
0.224981 0.916139  4.20083 51 62 82
0.236853 0.914048   4.1244 38 55 65
1.32206 0.88653 4.02066 69 74 97
0.0473112  0.893431   3.99772 101 109 122
0.446823 0.962265  4.30394 109 106 124
0.290654 0.934707  4.16569 49 62 77
0.869524   1.0876   4.8561  7 30 40
0.233962 0.918336  4.08499 48 63 77
-0.701233  0.762926   3.34185 115 117 117
-0.332646   0.91332   3.99564 72 76 93
0.345291  0.93063  4.09401 47 58 74
-1.20492 0.719602  3.11889 166 155 135
0.239983  0.92618   4.0573 50 63 80
0.104337 0.935407  4.08383 38 55 69
0.242983 0.936345  4.02019  96 102 116
-1.55885 0.825212  3.46989 122  94  48
0.394741 0.950726  4.06647 38 51 65
0.368173  0.94715  4.04423 38 55 69
-0.311215  0.943383   4.00388  85  96 119
0.203142 0.942979  4.00938 48 63 85
0.259827 0.939111  3.99578 54 70 91
-0.899333  0.784802   3.26301 139 135 155
0.441479  0.96072  3.99669 32 53 62
0.338773 0.953448  3.94666 42 53 70
0.195371 0.953321  3.93113 55 71 87
-0.685499  0.820464   3.35227 108 114 123
 1.97754 0.863566  3.59118 253 249 247
0.526034 0.975649  3.99815  82  88 104
0.376144  0.96092  3.92768 53 64 80
0.611422  1.03062  4.20847 43 50 60
-0.950149   0.81244     3.254 43 60 69
0.138988 0.963705  3.91042 46 56 71
-0.495924    1.0236   4.08687 17 31 50
-1.47764 0.846862  3.33096 92 80 52
0.321186 0.956384  3.84304 34 56 70
0.0798741  0.972281   3.88724 30 42 62
0.289861  0.95645  3.83112 47 62 76
0.152147 0.970333  3.87782 40 56 72
0.132782 0.982464   3.8623 57 71 88
-1.20277 0.820551  3.09322 129 127 122
-1.10658 -1.04411  3.91421 240 254 255
-1.11368 -1.02407  3.88183  95  78 189
  -1.1121 -0.974424   3.89457  92  64 195
 -1.09124 -0.827672   3.78521  51  71 101
  -1.0622 -0.824975   3.80329  55  71 119
-0.330279 -0.895521   4.99582 254 254 246
0.161212 -0.88847  5.26458 43 59 83
-0.317869 -0.860799   4.97404 108 105 107
 -1.17909 -0.650191   3.59313 248 255 254
 -1.17049 -0.649762   3.59808  86 105 125
 0.178943 -0.793413    5.2678 151 157 161
-0.633827 -0.757725   4.90372  70  93 122
-0.302407 -0.730167   4.97397 82 83 98
  1.56436 -0.671735   5.27356  74  52 118
  1.29226 -0.709752   5.84486  74  78 106
 0.516318 -0.701069   5.50569 221 255 255
  1.56418 -0.620841   5.22854 100  86 167
-0.247903 -0.671313   5.04741 60 65 87
-0.942074 -0.528577   3.53535 136 133 126
   1.6203 -0.587692   5.25557 41 61 91
-0.932049 -0.491593   3.54006 151 150 142
-0.946859  -0.48623   3.55582 97 93 83
 0.627622 -0.586944   5.52289  67  87 116
 -1.22312 -0.473924   3.46327 132 151 156
  1.26997 -0.553837   5.76352  74  87 120
  1.21065 -0.508796   5.81185  67  75 117
 -1.10555 -0.410073   3.45728  47  72 111
 -1.07507 -0.391676   3.47036 147 148 143
  1.25403 -0.437164   5.71813  90 108 147
  1.15135 -0.421154   5.93018 253 252 253
  1.48608 -0.354486   5.06431 254 252 253
 -1.03918 -0.340137   3.39204  57  78 108
0.0863808 -0.364122   4.59228 102  90  78
 -1.21523 -0.335971   3.29756 164 165 162
  1.46831 -0.341602   5.08256 249 248 251
 -0.93137 -0.335467   3.45331 116 141 170
 -1.17996 -0.333128   3.31455 154 148 138
 0.333787 -0.369025   5.08875 23 40 56
-0.828649 -0.327323   3.52171 142 153 184
0.0138933 -0.355149   4.66158 255 253 225
-0.737837 -0.319819   3.56885 110 124 154
-1.23543 -0.32204  3.33136 159 153 139
-0.625136 -0.346797   4.34022 130 127 120
  1.19444 -0.347169   5.69508  71  94 136
   1.0589 -0.337786    5.6245 115 124 138
 0.337269 -0.332308   5.08457 35 52 72
-0.887211 -0.327871   4.21783 130 111  93
 -1.14044 -0.300498   3.37815 113  99  79
0.0823772 -0.311811   4.57609 150 144 137
   1.4521 -0.288039    5.0675 253 254 255
-1.08895 -0.29675  3.40383 122 102  80
-0.977746 -0.290883   3.42643 167 163 149
 -1.02966 -0.290891   3.41125 107  88  73
-0.903886 -0.286481   3.46662 154 147 129
  1.48526 -0.256774   4.94274 229 224 231
  1.79663 -0.238517   5.00648 134 120 109
-0.860114  -0.26477   3.52211 152 131  97
 -1.20904 -0.266964   3.33281 143 150 149
 0.806726 -0.267059   5.29019 43 57 76
0.0974512 -0.268939   4.58488 135 125 118
 0.879818 -0.261167   5.32767 116 126 151
 -1.15798 -0.253671   3.34516 117 112 114
   -1.082 -0.242087   3.39739 76 73 88
 -1.07411 -0.239431   3.40023 115 116 124
 -1.13291 -0.231422   3.36436  85  90 108
  1.42855 -0.200546   4.99566  87  97 114
  1.72039 -0.188153   4.96323 122 142 162
 -1.11147 -0.229803   3.38356 74 76 92
-1.07771  -0.2278  3.38736 66 67 88
 0.834733 -0.212436   5.08713 151 139 129
  1.42563 -0.190163   4.99301  86  95 114
 -1.06123 -0.223395   3.38479 153 153 153
-0.969975 -0.212742   3.43943 127 128 132
 0.156436 -0.204562   4.64839  68  97 146
 0.697642 -0.192233   5.05919 66 66 59
  1.72105 -0.161962   4.95551 109 139 168
 -0.91188 -0.197389   3.46073 155 153 146
0.858254 -0.17795  5.14124 140 129 116
0.582799 -0.17019   4.9761 114 107  94
0.741389 -0.16976  5.06183 130 128 120
  1.43219 -0.147145   4.95085 252 254 238
 0.825257 -0.160582   5.11406 69 67 46
 -1.00843 -0.185294   3.42951 137 133 114
  1.11336 -0.143938    5.2561 84 83 78
   -1.164 -0.180496   3.33642 115 104 108
-0.779522 -0.170478   3.53761 101  89  84
-0.638319 -0.163755   4.28738 111 126 151
   1.3946 -0.118787   4.96168 106 113 155
  1.30007 -0.120897   5.12449 131 140 143
-0.887204  -0.16212   3.49196 159 155 131
-1.13626 -0.16641   3.3674 106  95  93
0.0294718 -0.142897   4.52221 68 80 92
   1.1481 -0.111419   5.35043  73  88 116
   1.84515 -0.0907041    4.99064 26 44 88
  -0.3615 -0.139227   4.45208 116 131 152
 -1.17803 -0.152456   3.33018 141 149 128
   1.83076 -0.0836186    4.98003 125 143 169
-0.997106 -0.132916   3.43007 118 109  91
 -0.95081 -0.128325   3.46453 108  97  78
   1.58411 -0.0584166    4.79583 111  86  64
   1.60906 -0.0572489    4.80807 119 100  76
   1.63354 -0.0533396     4.8204 123  97  70
 -1.13935 -0.119656   3.33336  90  90 109
 -1.12155 -0.118608     3.348 79 84 93
 -1.10024 -0.118516   3.35543 108 101 104
   1.75739 -0.0411439    4.89143 117  93  74
   1.80556 -0.0364925    4.91393 108  94  79
-0.813253 -0.105809   3.50942 106  95  99
   1.87975 -0.0300371    4.95594 105  86  71
   1.92936 -0.0235136    4.99381 105  87  72
  0.200688 -0.0628882    4.57912 139 125  99
   0.25527 -0.0587225    4.60744 140 121  97
   1.80962 -0.0157942    4.93395 155 134  98
 -0.643761 -0.0685671    4.26489 142 142 137
  -0.36984 -0.0544684    4.39113 141 137 119
  0.410838 -0.0309348    4.69913 161 146 122
   1.69422 0.00596167     4.8575 129 128 129
 -0.672289 -0.0541813    4.24648 144 140 146
 -0.828332 -0.0521618    4.14873 101 102 105
 1.70442 0.148382  4.87536 48 67 98
 1.73387 0.191939  4.88761  95 114 133
0.152732 0.160565   4.5696 100 116 139
 1.76142 0.227539  4.90299 51 68 99
0.490673 0.262331  4.86491  60  77 102
-0.947471  0.167994   4.03803 72 62 67
0.756631 0.558078  4.87774 112 111 104
 1.72807 0.554165  4.71881 137 126 108
 1.38435 0.580532   4.7919 107 114 116
-0.951399  0.499011   3.98791 64 57 56
 -0.3367 0.658509  4.32108  98 123 146
0.776926 0.752263  4.88336 63 56 46
 1.72102 0.786348  4.63663 32 34 23
0.451956 0.848285   4.5315 112 121 122
0.383998 0.875269  4.45283 80 82 78
 1.97689 0.963807  4.77269 54 57 72
  1.5083 0.941433  4.54936 53 54 71
0.992439  1.00019  4.72111 18 25 37
    1.3 1.07812  4.8765 19 29 45
0.851555  1.09052  4.82862 24 31 43
0.894353  1.13115  4.82052 63 72 89
  1.05603 -0.654363   5.69742  75  83 104
 0.775385 -0.585524   5.61842 48 62 85
-0.999383 -0.463269   3.49375  74  95 127
 0.195859 -0.394548      4.71 113 101  88
  0.22439 -0.366124   4.72169 134 128 115
-0.427462 -0.359348   4.57441 40 57 89
 -1.24566 -0.199063   3.29611 255 255 254
-0.885474 0.0514632   4.13955 55 74 99
-0.896631  0.143968   4.14413 55 71 98
 2.24708 0.296887  4.93332 215 239 252
-0.738883  0.168454   3.47938  86  92 103
  1.7124 0.367436  4.77771 47 48 58
-0.655464  0.290103   4.17242 122 123 122
 1.05465 0.582269  5.03004 104 101  97
 1.04215 0.693078  5.03323 23 26 27
-0.216974  0.732041   4.36623 94 99 96
-0.615247  0.738384   4.16515 66 74 86
-0.646844  0.837973   3.96593  93 103 110
-0.617319  0.874613   3.94631 34 40 52
-0.363006  0.888852   4.02556 32 37 49
0.375286 0.937881  4.27222 75 76 88
-1.45639 0.862736  3.28344 123 103  80
 -0.0527 -0.65756  5.03594  93 109 139
-0.228909 -0.606575   4.92493 41 53 78
-0.843991 -0.370808   4.22293 132 125 123
 0.684194 -0.243852   5.10895 39 54 81
  1.47053 -0.160018   4.85764 243 244 245
  1.79416 -0.143328   4.98071 142 145 144
 -1.24966 -0.271651    3.3076 255 255 255
 0.0179321 -0.0653397    4.51448 118 107  90
 -0.93836 -0.104658   3.44276  69  96 126
-0.346267 0.0995791    4.4892  79  91 119
-0.809587   0.14354   4.14469 53 74 99
-0.759473  0.153717   4.15658 130 121 111
-0.383996  0.189197   4.34342 138 141 139
-0.710086   0.26753   4.16771 68 56 59
  1.4068 0.381972  4.82247 63 68 86
-0.710672  0.387164   4.15276 74 69 67
-0.141508  0.500204   4.33579 69 63 68
-0.705531  0.476423    4.1319 77 69 65
-0.08115 0.520705  4.30389 130 133 137
-0.161187  0.633637   4.35916 65 61 64
-0.0794442   0.650063    4.28889 121 121 116
-0.999088  0.500446   3.29633 34 41 52
-0.150441  0.694381   4.32334 72 68 77
-0.643834  0.689851   4.10683 93 94 92
0.736141 0.813509  4.83491 105 107 107
-0.156238  0.762438   4.33121 70 61 69
-0.150891  0.833132    4.3066 60 56 60
0.516002 0.972848  4.31751  87  96 117
1.35759 1.08313 4.76498  81  97 112
 1.20096 -0.62999  5.81623 193 232 254
  1.72327 -0.191876    4.9672 107 129 156
-0.191788 -0.187897   4.50693 44 57 83
-0.0539514  -0.172687    4.49313 53 68 95
  -1.02719 -0.0256029    3.33747 133 127 126
-0.707331  0.192315   4.17882 89 76 75
-0.636607   0.22529   4.17695 123 117 110
-0.0882284   0.295173    4.39272 138 140 139
0.196261 0.360083  4.53034 60 74 97
-0.705518  0.591158   4.11419 58 53 52
-0.433227  0.672938   4.24019 59 52 53
1.52463 0.73673 4.60289 127 130 139
-0.701042    0.7926   4.07317 56 53 57
-0.421901  0.819833    4.1958 62 57 65
1.91088 1.03064  4.7623  94 102 114
-0.256949 -0.488454   4.82752 43 56 85
-0.963217  -0.36596   3.46283  93 124 167
-0.0562394  -0.341586    4.67104 44 60 84
-0.728998 -0.116941   3.54032 157 163 166
-0.960637  0.206412    3.3398 152 146 133
-0.73319 0.244256  3.48035 145 144 128
-1.11075  0.76075  3.17001 156 145 131
0.394329  0.56323  2.26536 40 44 55
  1.30602 -0.640186   5.75005 105  98 111
-0.604494 -0.338896   4.38863 115 117 124
0.305027 -0.19428  4.74346 45 57 82
-0.751657 -0.223852   3.59802 127 123 117
 1.75192 0.711665  4.68811 120 118 162
-0.595004  0.439012   4.23177 95 93 97
-0.298675  0.452009   4.27905 101 100 101
  0.10084 -0.349159   4.73631 119 121 125
 -1.25909 -0.182087   3.23644 255 255 255
   1.44128 -0.0443597    4.85055 214 181 144
 -0.744269 -0.0772596    4.06007 95 78 62
-0.219218   0.34748    4.3974 98 95 90
0.366385 0.147835  4.59949 131 128 123
  0.47091 -0.618779   5.44394 50 65 92
 0.279665 -0.154696   4.64254 131 138 144
 0.378363 -0.100888   4.63544 138 147 170
   1.62476 -0.0752042    4.82338 172 156 131
   1.52923 -0.0454929    4.79279 166 141 103
 0.373779 0.0018007    4.6381 132 118 102
-0.0515714   0.135989    4.37595 140 134 119
0.0642531  0.141368   4.44417 156 153 148
0.669892 0.209864  4.91497 116  96  93
 1.84328 0.230892  4.92599 163 162 156
-0.617622  0.267191   4.19352  91 106 135
-0.812862  0.286906   3.42526 89 67 52
0.768053 0.473173   4.8895 141 141 141
0.543922 0.480046  4.76596 94 93 92
0.0578113  0.474562   4.31386 145 142 135
 1.83642 0.509517  4.85904 132 123 101
0.618998 0.545981  4.79292 119 114 107
0.211053 0.609884  4.45199 46 65 89
0.660923  0.74794  4.78625 130 123 129
0.935965 0.823133  4.92571 54 50 56
-0.874338  0.664118   3.31717 146 138 129
 1.78208 0.997515  4.72759 109 112 122
1.21678 1.17467 4.98991  88  92 118
-0.590579  0.939376    3.8558 51 57 66
1.02018 1.11809 4.68683 40 54 69
  1.59888 -0.668139   5.30201 66 86 86
0.0895666 -0.309457   4.56294 148 146 140
-0.829057 -0.147372   3.50998 106  89  89
 0.468029 -0.208253    4.8898 94 87 76
  0.47738 -0.193994   4.89277 141 139 119
  1.00396 -0.153627   5.18902 102  94  86
-0.773231  0.035423   3.49669 109  90  84
 0.184908 0.0580424   4.51556 145 139 129
-0.056385 0.0696502   4.39595 148 139 129
-0.800077 0.0989977   3.47156 114  98  93
-0.204644  0.129592   4.43997 134 129 116
-0.826995  0.129122   3.45712 119  99  94
-0.806225   0.19705   3.44136 153 122  88
-0.784985  0.212541   3.45461 116  91  84
-0.83277 0.213771  3.43229 128 105  89
0.319674 0.286047  4.54437 156 158 153
-0.716347  0.305148   4.13571 137 140 140
-0.738008  0.328855   4.10994 68 71 79
-1.11919 0.280992  3.28611 107  87  84
-0.843703  0.290402   3.41063 136 105  87
-1.14644 0.299951  3.26673 115  94  91
-0.806568   0.31618   3.42293 119  91  84
0.399259 0.415179  4.50665 92 76 65
 1.47535 0.537671  4.70991 129 134 126
0.0224391  0.551512   4.32075 99 94 93
0.169356  0.56396  4.43877 23 35 58
 1.95245 0.664092  4.90747 88 74 62
0.0249912  0.632567   4.30298 84 78 79
-0.432934  0.713888   4.19149 64 61 65
-1.19006 0.579873  3.17126 167 159 135
-0.440835  0.759188   4.17527 113 114 118
-0.778609  0.638228   3.36034 113  87  78
-0.0398077   0.811758    4.22484 118 127 133
 1.39915 0.926856  4.80405 61 73 83
0.694811  0.82681  4.16606  62  77 108
-0.264262  0.917413   4.22208 65 74 92
1.20317 1.17416 4.98616  71  80 102
0.260199 0.917257  3.55136  98 114 131
-0.0736597  -0.973214     5.2861 42 50 89
0.249062 -0.17073  4.62894 140 140 139
 -0.816538 -0.0851474    3.50412 161 166 156
 0.236621 0.0633886   4.57622 151 143 139
  1.91452 0.0450913   5.00953 97 85 87
-0.767447 0.0779504    3.4824 172 169 171
 -1.04003 0.0818427   3.41756  49  74 102
-0.0657691   0.119687    4.37688 157 155 147
-1.16118 0.135156  3.29309 137 144 148
-0.889434  0.177103     3.395 162 165 161
-0.850718   0.18083   3.41441 152 153 153
-1.14836 0.208619  3.28859 105  89  86
0.707974 0.326393  4.91365 89 81 80
 1.57231 0.436207  4.71743 100  79  84
 1.75543 0.523918  4.79232 125 118  99
 1.00993 0.605985  5.01744 112 107  99
-1.07871 0.428592   3.2692 163 155 146
-0.860289  0.467178   3.36352 159 148 125
-0.660425  0.627589   4.08938 114 107 109
-1.08075 0.596985  3.23127 113  88  73
-1.17468 0.628428  3.15618 175 159 135
-0.0435663   0.872856    4.21514 104 107 116
-0.963979  0.698428   3.24525 154 146 131
0.789617  1.00676   4.5909 42 52 68
-2.30771  4.97696  20.7632 73 78 95
-0.278315 -0.683899   4.95051 137 144 150
-0.865419 -0.072013   3.47863 82 81 80
 -0.631667 -0.0718701    4.24341 145 140 130
   1.99711 -0.0537432    5.09138  89 103 128
   0.868841 -0.00937171     5.09237  91  96 117
-0.992402 0.0862362   3.41186  91 124 163
-0.659004  0.194629   4.18529 136 130 127
 2.24752 0.181398  5.04278  57  39 173
-0.401188  0.210812   4.32355 89 78 84
  1.3103 0.271718  5.01652 122 126 118
-0.572105  0.387897   4.17631 128 134 130
-1.08052 0.327897  3.29213 92 76 82
0.302491 0.540535  4.48948 134 132 116
-0.861707  0.502826   3.35587 80 68 58
-0.755281  0.542088   3.39306 155 144 133
0.995061 0.799396  4.97037 113 108  97
-1.07262 0.563624  3.24215 157 147 129
-0.18437 0.759252  4.30774 100 103  99
0.877519 0.895391  4.89062 65 75 86
 1.81386 0.878219  4.78538 88 88 94
-0.906023  0.702052    3.2725 138 132 123
1.04129 1.03299 4.73775 62 75 89
 0.467497 -0.710768   5.49944 206 237 254
-0.608973   0.34598   4.16732 124 132 138
-1.06649 0.404075  3.27995 157 150 134
0.272576 0.741511  4.43619 64 74 95
 1.04019 0.952233  4.95058 11 14 27
 1.01975 0.969023  4.94058  96 103 111
 1.59611 0.289722  4.76277 149 138 122
  1.6039 0.745461  4.67029 127 121 102
-0.819284   0.24685    3.4266 99 87 82
-1.16043 0.497941  3.21607 87 67 63
-1.15508 0.565138  3.19193 110  88  81
0.310272 0.511032  4.48241 106  99  85
  1.98568 -0.101944   5.09246 198 234 254
 0.63711 0.803691  4.75526 112 108 107
-1.08512 0.729711  3.18676 158 143 129
-0.640737  0.158512   4.19523 131 124 118
 -1.15816 -0.715309   4.46793 142 157 158
-0.678558 -0.693401   4.82263  84 104 137
  1.25665 -0.697688     5.792 135 134 141
-0.913365 -0.567944   3.68848  68  84 105
-0.139581 -0.652589   4.93815 135 161 198
  0.51091 -0.675968   5.53919  65  75 102
  1.59998 -0.604857   5.24937  94 106 127
   1.2853 -0.637862   5.80912 158 156 164
  1.07733 -0.629122    5.6953  94 107 115
 0.369985 -0.595813   5.37892  88 105 134
  1.71048 -0.496908   5.21784 192 245 248
 1.07416 -0.51769  5.66374 139 149 152
-0.885464 -0.405367   3.57518 42 63 88
-0.895397 -0.400872   3.55483  85 103 128
 0.236202 -0.418061   4.95171 124 152 184
 -1.23217 -0.364701   3.35083 153 180 198
 -1.18659 -0.320785    3.2998 160 160 157
-0.974139 -0.316534   3.41938 153 139 119
-0.880553 -0.295045   3.46982 159 149 134
 0.591947 -0.296076   5.20383 113 119 158
 0.834348 -0.291997   5.34473  77  95 119
  1.37411 -0.237409   4.99819 140 130 114
 -1.09004 -0.242079   3.38901 110  98  98
 0.452268 -0.217816   4.91474 137 122 101
 -1.07766 -0.170319   3.37912 93 84 97
0.329587 -0.11223   4.6801 141 164 202
 -1.06335 -0.141548   3.37572 154 153 143
  0.250291 -0.0881735    4.57408 166 155 134
-0.0568188 -0.0960033    4.42433 71 61 58
   1.61892 -0.0536102    4.80764 166 151 122
    0.5949 -0.0723911    4.96736 159 166 172
  0.132518 -0.0790156    4.52933 87 73 61
-0.845487  -0.10313   3.48809 70 67 70
    1.9365 -0.0221528    4.97304 142 131 102
 -0.224809 -0.0722679    4.47506 114  99  87
  0.756092 -0.0325934     5.0592 112 132 156
   1.34118 -0.0201689    4.96524 136 135 131
   1.93764 0.00698013    5.00735 150 140 109
 -0.786177 -0.0695852    3.51165 97 87 90
  0.499821 -0.0110536    4.85597 65 59 42
 0.739146 0.0289401    4.9998 144 125  98
  0.254646 0.00879449    4.57043 151 142 125
 1.71245 0.112231   4.8507 107  94  76
 0.388002 0.0921997   4.64969 116 108 102
 1.95182 0.161095  4.97731 148 151 128
-0.884399 0.0475183   3.43045 155 151 146
0.641677 0.178978  4.92295 95 71 64
0.776866 0.268262  5.00086 108 121 142
-1.20189 0.148677    3.236 127 128 128
-0.966454  0.178824   3.34825 111 100  93
0.815527 0.339904  5.03885 112 123 143
 1.39443 0.341975   4.9134 87 93 94
0.310854 0.306906  4.56653 151 145 139
 1.93429 0.432797  4.92219 127 129 125
1.72485 0.42927  4.7927 128 114  93
-0.810211  0.339617   4.06508 92 82 75
0.913457 0.476886  4.97724  93  97 108
0.978474  0.48357  5.01584 69 74 87
-0.476199  0.410982   4.24747 113 113 113
 1.03514 0.539723  5.04847 125 131 132
-0.185494  0.478743   4.38663 108  98  92
-0.982238   0.34586   3.33756 30 40 65
-0.830488  0.435071   4.03115 123 121 128
-0.723198  0.461967   4.09413 78 73 68
0.0727589   0.51738   4.37617 129 122 102
 1.65449 0.573936  4.72787 126 117 107
 1.18712 0.644109  5.10734 112 104 110
-0.815614  0.490459   4.02737 56 59 59
-0.687072  0.511294   4.10854 97 83 87
 1.08804 0.662651  5.05354 51 52 54
0.128038 0.581498   4.4337 47 62 87
0.026861  0.57502  4.33528 118 116 116
0.921626 0.677007  4.95273 55 52 51
-0.686181  0.548548   4.09423 82 73 76
-0.893953  0.533121   3.98729 117 115 111
-0.829194  0.449207   3.37503 73 54 64
1.67185 0.67253 4.70699 138 132 113
0.0466492   0.63031   4.30892 115 114 115
-0.454646   0.62186   4.21572 75 73 77
 1.22039 0.780401  5.08569 145 144 151
-0.73783  0.62082  4.05388 111 111 108
-1.09865 0.507214  3.22089 170 166 133
-0.661616  0.674749   4.08435 130 127 127
-1.01469 0.594466  3.27452  2 32 27
-0.870346  0.601838   3.31762 127 114 102
-1.01734 0.597803  3.26637 124 140 137
-0.0438394   0.792774    4.25891 105 105 108
0.659335 0.916661  4.76352 58 60 64
 1.75723 0.897776  4.68513  99  96 105
-0.445727  0.804462    4.1717 59 58 60
 1.10504 0.995294  5.04569 57 72 99
 1.08673 0.991354  4.97421  94  99 117
-0.756824  0.670927   3.35743 76 67 69
-0.175167  0.883321   4.29954  91  96 105
-0.265389  0.886574   4.30708  91  98 114
0.861111   1.0129  4.83927 100 104 118
 1.76053 0.974036  4.67815 112 119 115
1.28837 1.04435 4.90537  91  98 102
0.316835 0.924491  4.18606 36 51 64
1.06128 1.04845 4.73777  89  96 115
-1.06699 0.723872  3.19044 146 134 108
-1.16658 0.716184  3.13839 112  96  90
 -1.2127 0.714626  3.12791 114 100  94
-0.931548  0.741947   3.24649 133 131 128
0.172544 0.942949  4.00447 45 61 75
0.474175 0.959596  3.99965 36 55 70
0.361165 0.955033  3.95817 46 63 81
0.363335 0.959292  3.91869 44 54 74
 -1.15372 -0.744668   3.68408 114 134 141
 -1.18951 -0.620379   3.56844 244 255 255
 0.309488 -0.675406   5.43081 45 65 88
-0.983281 -0.432159   3.52081  61  92 137
-0.781361 -0.408578   4.44799 47 64 92
-0.842052 -0.328667   3.52393 124 146 174
 -1.18997 -0.311515   3.32065 113 100 102
 -1.16468 -0.290496   3.35394 159 147 126
 0.760925 -0.228805   5.07919 113  98  87
-0.834403  -0.15613    3.4978 121 111 107
-0.267192 -0.145763   4.50134 104 111 122
-0.874319 -0.134949   4.11603 73 62 50
-0.860489 -0.125713   4.13516 116 102  82
   0.34809 -0.0568817     4.6383 106  88  75
 0.0613264 -0.0292704    4.50898 151 144 127
 -0.0447114 -0.00394631     4.42733 114 105 101
 0.868851 0.0470592   5.07023 142 126 102
-0.0469231   0.026922    4.43933 154 145 125
 0.416436 0.0423234   4.68335 133 128 119
-0.889681 -0.015695   3.44191 153 152 142
  -1.08334 0.00329795     3.3383 98 87 90
 2.28094 0.192357  4.90496 82 82 64
0.0716445  0.140512   4.45979 160 158 149
-0.0149472   0.147009    4.42835 130 122 115
0.523244 0.188042  4.89052 101 117 140
0.220106 0.291422  4.54713  92 117 146
-0.46645 0.263721  4.28916 85 79 77
  2.2516 0.356491  4.96516  63  47 181
-0.862018  0.204545   3.41128 154 142 112
 0.70671 0.357229  4.90692 133 132 120
0.742301 0.368493  4.92991 147 141 123
-1.12055 0.202664  3.27803 106  96 100
-0.760915  0.258185   3.45216 73 66 81
-0.774961  0.334803   4.08122 125 126 125
-0.978874  0.268376   3.32792 89 80 72
0.720583 0.453992  4.90156 136 140 139
0.546494 0.453108  4.77907 112 110 109
-0.217028  0.407645   4.38922 110  95  82
-1.03423 0.320395  3.29223 160 152 140
 0.03823 0.469063  4.34664 125 119 122
 0.19144 0.494319   4.4145 121 117 117
-0.857524  0.400168   3.37176 151 145 118
0.375238  0.57871  4.54517 138 138 133
-0.395928  0.536884   4.25804 81 72 83
-1.03004 0.402459  3.27365 153 149 131
-0.062059  0.562202   4.30179 126 121 122
 1.17645 0.680104  5.09198 114 117 126
-0.193153  0.624942   4.35088 109 105 107
 0.71161 0.701587  4.83864 89 81 80
-0.39675 0.668157  4.23636 59 55 60
1.22085 0.84916 5.06897 143 141 146
 1.54888 0.772703  4.61011 129 122 118
-1.11958 0.554823  3.19518 113  91  84
-1.02439 0.571161  3.23984 156 150 132
 1.48535 0.843404  4.60898 113 120 114
0.928321 0.947403  4.89469  96 101 107
 1.54426 0.890591   4.5919 125 134 137
-0.443167   0.86973   4.15583  90  96 112
1.71903 1.00496 4.64726 33 42 77
0.0222208  0.884369   4.03235 63 69 86
-1.20439 0.704504  3.11617 160 143 114
-0.348607   0.91438   3.99352 69 76 91
-0.746606  0.799046   3.32527  93  95 104
0.291087 0.946245  3.96657 53 66 90
0.0676039  0.957681   3.99446 42 49 68
 1.0721 1.12742 4.70595  77  88 103
0.547435 0.979822  3.97735 48 62 78
0.367648 0.966696  3.88859 50 57 76
-0.693542  0.860168   3.33039  75  90 110
-1.22567 0.818652   3.0645 128  99  94
 -1.17204 -0.579864   3.53834 140 170 174
 -1.17263 -0.535633   3.50456 44 70 90
-0.910728 -0.399085   3.51552 162 169 167
 -0.58415 -0.384479   4.37177 128 123 117
-0.573326 -0.381435   4.38402 132 124 115
-0.857591 -0.381423   4.21977 76 68 64
 -1.19103 -0.334619   3.30039 167 161 153
-0.850558  -0.26893   4.22585  63  95 143
-0.762445 -0.208657   3.55723 161 159 163
  1.68301 -0.083786   4.84362  79  88 109
-0.875345 -0.114293   3.48044 80 75 71
  -0.86136 -0.0955751    4.12744 127 122 106
  0.967192 -0.0367784    5.16654  82 103 130
 -0.627276 -0.0458862    4.23637 141 136 126
  1.52835 0.0318575   4.75027 153 138 114
 -0.996981 -0.0149798    3.42128  66 100 146
   -1.04237 -0.00896855     3.36269 151 151 142
  1.9395 0.160113  4.97014 102  85  80
-0.883756 0.0497012   3.42337 155 153 144
 2.24623 0.206325  5.01808  54  30 169
-0.67685 0.134499  4.19713 60 56 59
-0.0363276   0.199567    4.38461 126 120 114
-0.856087  0.135775   3.43139 85 85 88
-0.826418  0.172403   3.42079 107 108 118
-0.674581  0.246826   4.17755 69 60 62
-1.17863 0.217541  3.22253 126 135 136
 1.52506 0.405804  4.67376 128 105  84
1.13706 0.46372 5.11557 50 58 69
-1.11405 0.260892  3.27332 109  93  96
1.78101 0.45192 4.81353 137 130 115
-0.785235  0.368691    4.0741 130 130 125
0.410852 0.484107  4.57543 129 124 118
0.0666026  0.459649   4.35917 159 156 152
-0.764306  0.434551   4.09048 107  95  87
 1.82185 0.565871  4.82667 133 127 112
-0.804071  0.374072   3.40859 139 141 128
 1.82186 0.612588  4.81028 130 126 108
-1.06369 0.415298  3.25504 78 62 68
 1.81181 0.713325   4.7882  95  96 110
 1.81197 0.787804  4.76726  88  91 107
-1.17368 0.529274   3.1779 152 150 122
0.890352 0.834072  4.89903 117 116 106
-1.06249 0.624386  3.21687 162 156 141
-0.653813   0.79268   4.05732 57 57 65
-0.563945  0.936359   4.06883  86  97 121
1.07214 1.09865 4.73218  83  91 103
1.03817 1.12386 4.67375 74 80 95
-0.541433  -0.41189   4.60458 34 48 69
  -0.8158 -0.393838    4.2428 37 51 75
-0.832678 -0.389537   4.22911 127 121 110
-0.813627 -0.306706   4.22815 65 69 74
  1.80191 -0.210707   4.98414 100  92  89
 0.0376789 -0.0966553    4.47461 160 156 147
-0.978153 -0.111853   3.45497  59  78 112
  -1.00041 -0.0799504    3.43272  47  62 108
  1.98435 0.0325349   5.02919 130 132 123
0.944157 0.115893  5.08668 134 133 130
-0.236328 0.0901478    4.4538 130 128 124
0.911779 0.201062  5.06309 117  91  94
0.63362 0.37631 4.87389 142 138 120
-0.0637355   0.349662    4.35103 130 144 155
-0.953163  0.270895   3.34481 118 111 101
-0.540361  0.419138   4.19925 131 124 112
-0.961799  0.391485   3.34246 32 53 54
-0.239319  0.553496   4.34407 53 59 62
-1.03189 0.426743  3.27031 155 149 132
-0.626489  0.575928   4.12183 121 120 115
0.0884287  0.629434   4.37069 118 113 110
-1.14384 0.465791  3.21022 90 75 74
-1.02801 0.488905  3.25519 164 156 143
0.621733 0.748374  4.77087 117 116 111
0.754298 0.801713  4.83278 118 114 109
0.395828 0.802972  4.49684 103 104 107
0.0644905   0.77769   4.29568 123 132 136
0.193855 0.805033  4.41291 82 66 65
0.648036 0.900548  4.75331 105 112 112
-0.957483  0.643351   3.29977 20 32 30
 0.77311 0.940611  4.81395 49 49 48
  1.3729 0.980638  4.76429  77  92 106
0.899165   1.0184  4.88412 85 90 98
-0.485554  0.969794   4.10255  75  86 104
0.867581 0.881724  3.43495 111 120 144
 -1.09706 -0.384376   3.43891  96 121 159
 -1.16459 -0.309496   3.32141 123 108  92
  1.57362 -0.078003   4.78744 158 142 118
 -1.18938 0.0594113   3.27373 147 150 144
-0.465799  0.243562   4.28741 134 138 134
1.80329 0.39395 4.85016 63 71 86
0.668753 0.438339  4.86714 139 143 142
-0.569614  0.369456   4.18321 119 110  98
0.520736 0.446394  4.76761 109 113 107
0.455616 0.467719  4.60828 141 141 136
-0.623271  0.605913   4.10809 116 117 109
 1.48611 0.805683  4.62732 113 124 133
-1.16185 0.685129  3.14339 65 70 88
 0.371219 -0.698976   5.46848  85  92 112
 0.232977 -0.586631   5.26237 41 54 82
-0.627194 -0.377802   4.36828 137 128 112
-0.463727 0.0204624   4.34523 116 104 102
-0.285597  0.277581   4.42442 104 122 150
-1.14481 0.730244  3.12582 174 162 154
-0.791207 -0.266073   4.23665 136 131 127
 -0.332283 -0.0755253    4.46508 107  91  76
  -0.84815 -0.0226669    4.13021 84 83 83
  1.62297 0.0663822   4.81951 117  94  91
-1.11529 0.220651  3.28292 75 73 80
-1.11189 0.243228  3.27031 145 147 141
0.805524 0.718549  4.90844  75  91 114
0.842173 0.868541  4.87784 53 53 35
0.223548 0.846917  4.44062 86 71 54
 0.29465 0.918704  4.41841 106 121 136
-0.563074 -0.218861   4.36874  64  95 143
   1.10917 -0.0828946     5.2527 124 122 113
0.842004 0.931731  4.86939 62 55 44
  -1.09141 -0.0595532    3.34862  93  94 110
  -1.09312 0.00627752    3.33991 88 84 96
1.07728 1.00196 4.97129 66 66 66
 -1.13569 -0.320243   3.40419 141 136 123
   -0.89593 -0.00616129     3.44593 149 147 146
 -1.09708 0.0863079   3.30848 90 85 93
 1.79602 0.450056  4.82127 125 120 110
  1.5247 0.792398  4.58465 134 132 135
-0.0409711  -0.211976    4.55593 46 58 83
 1.91802 0.117198  4.99468 97 84 86
 -1.16321 -0.729839   3.57779 246 255 255
 0.571062 -0.773606   5.68283 199 235 255
-0.0994663   -1.06393    5.25298 55 64 98
-0.127312  -1.04735   5.25975  89  97 131
-0.165058 -0.898982   5.21038 44 48 72
 -1.32644 -0.868506   4.32131 161 167 179
 -1.1524 -0.73229  3.66735 120 144 155
-0.975994 -0.815335    4.7357 241 255 255
  1.04252 -0.685812   5.67371 107  96 145
  1.63023 -0.602343   5.28906  86 116 131
  1.05124 -0.678357   5.67721 115 130 148
  1.07005 -0.651205   5.68475 134 141 149
  1.55669 -0.562626   5.16483  94  90 162
 -1.14799 -0.713695   4.46925 59 65 91
  1.66926 -0.546233   5.25243  65  88 115
 1.11289 -0.59657  6.06393 245 255 255
 -1.14766 -0.655978   4.45604 43 57 81
  1.54457 -0.482772   5.09962 121 114 186
  1.71845 -0.472186   5.22034  79 105 134
  1.06603 -0.513479   5.65635  79  81 104
-0.148858 -0.546415   4.85137  67  93 132
  1.76568 -0.413284   5.17891 189 244 248
 0.188147 -0.518723   5.19693  52  71 104
-0.925688 -0.491202   3.53048 142 148 146
 1.77231 -0.37179  5.16937 124 152 152
 -1.05234 -0.470144   3.47065 135 139 139
-0.918723 -0.458264   3.56878 140 148 153
  1.81995 -0.332205    5.1179 185 244 250
  1.79967 -0.330126   5.15729 112 136 142
   1.5225 -0.324737   4.95929 119 112 182
0.0621305 -0.376445    4.6111 150 144 130
-0.847104 -0.401043   3.81865 120 129 141
-0.529287 -0.397729   4.59233  92 108 143
-0.307049 -0.381381   4.73462 121 139 177
  1.85313 -0.248108   5.09216 110 136 140
-0.123789 -0.345642   4.64359 101 127 170
  1.42125 -0.232755    5.0359 122 117 121
 -1.0367 -0.34361  3.42234 108 133 162
  1.66719 -0.210279   4.92518 138 139 136
1.79791 -0.2034 4.99072 133 130 114
  1.89426 -0.186189   5.10183 117 137 139
-0.894018    -0.329   4.19589 129 120 108
 1.51193 -0.18348  4.84533 115 135 180
