ply
format ascii 1.0
element vertex 1208
property float x
property float y
property float z
property uchar red
property uchar green
property uchar blue
end_header
0.486738 0.970009  5.98035 63 60 62
-0.0773194   0.840614    5.67328 49 46 51
-0.119237  0.531892   5.56724 58 54 55
 1.20145 0.621401  6.76832 83 75 73
0.481822  0.45279  5.76211 45 44 48
0.0203682  0.416476   5.56074 137 129 125
-0.998891  0.406086   5.81478  95  93 106
-0.876873  0.373278   5.71858 156 147 150
0.946323 0.240672  6.32299 94 88 82
 0.36593 0.129873  5.67773 83 77 71
 0.136852 0.0998622   5.54224 51 47 45
  -1.00219 -0.0851696    5.77655 140 138 151
  1.84647 -0.130659   6.07542 107 106 103
  1.90501 -0.157474   6.04182 74 73 79
  1.96555 -0.172985   6.00816 95 87 80
 0.224428 -0.254533   5.47518 90 81 72
-0.423843 -0.591443   5.21652 85 84 83
 -0.11065 -0.620663   5.39709 165 151 138
0.0758648 -0.616542   5.25979 171 153 139
-0.397291  -0.65185   5.29165 152 138 122
    1.461 -0.746711   5.68196 64 59 56
   1.343 -0.78909  5.66355 47 43 42
  1.63933 -0.838094   5.57977 74 68 70
  1.21961 -0.859059      5.61 116 106  99
   1.5591 -0.872306    5.5858 57 48 51
  1.02829 -0.976417   5.58026 149 138 133
0.738729 -1.04816  5.71902 181 162 152
-1.19926 -1.17606   5.4645 170 164 165
0.199707 -1.50976  6.67713 65 57 57
-1.14887  -1.2874  5.59148 163 144 138
-0.461359  -1.57749   6.65531 118 107 102
-0.277357   2.39795   7.16031 146 130 113
-0.698709   2.45869   7.38014 151 140 127
-0.773778   2.07997   6.95179 133 126 121
-0.832353   1.74779   6.58725 152 147 145
-0.240529   1.55036   6.16314 64 62 67
-0.924364   1.47724   6.46189 105 104 110
0.479693  1.22091  6.17141 58 56 58
-0.235507    1.0632   5.79526 91 88 92
-0.248555  0.975226   5.73822 56 53 59
0.416391 0.869871  5.88973 44 39 41
-0.250448  0.825588   5.66508 114 108 109
0.727198 0.894457  6.16527 58 55 57
-0.373201  0.661438   5.62724 53 51 54
 1.20139 0.791145  6.93266 72 65 64
0.0212004  0.613862   5.59554 51 49 55
-0.489333  0.577666    5.5947 55 52 58
 1.24738 0.713715  6.84698 126 113 108
-1.18779 0.607757  6.05916  84  82 100
-0.602562  0.464772   5.57471 65 63 74
0.761131 0.498072  6.03137 105  97  94
1.01083 0.48914 6.39783 84 80 80
0.0430902  0.291027   5.51787 124 115 105
-1.11323 0.308774  5.87289  98  95 113
-0.0890059   0.229559    5.49933 140 126 114
-0.0123982   0.203203    5.52972 128 117 105
 1.23653 0.263836  6.89536 216 217 210
-0.660766  0.112742   5.61216  99  98 107
 1.52036 0.127786  6.66889 101  92  85
   1.8444 -0.045144   6.13416 135 130 125
 -0.803714 -0.0721965    5.66578 106 106 120
   1.74241 -0.0641823    6.27497 142 124 113
   1.98546 -0.0800262    6.08328 118 100  83
-0.413021 -0.149024   5.46164 134 123 114
 0.192157 -0.165453   5.51389 125 112  93
   0.2937 -0.223274   5.53035 110 100  85
0.0436907 -0.230168   5.42215 121 107  92
-0.367793 -0.235089    5.4273 106 100  96
  1.99407 -0.269857   5.89178 48 44 44
  1.94794 -0.292833    5.8857 127 111  99
  0.22527 -0.344944   5.42373 90 82 72
-0.485369 -0.367946   5.32579 131 120 115
-0.320595 -0.380632   5.23177 115 106  96
-0.913132 -0.470516   5.66179 163 159 159
-0.168938 -0.424681    5.2209 72 65 64
-0.00909938   -0.449893     5.22298 143 129 116
 0.221427 -0.464675   5.25308 90 82 77
-0.205165 -0.504029   5.23083 136 123 113
  1.69676 -0.590025   5.85146 63 58 57
-0.187474 -0.608771   5.27912 164 149 135
 1.59296 -0.66061  5.74641 77 72 68
  1.81046 -0.657644   5.65355 37 35 39
 0.446869 -0.631061   5.33332 71 66 66
 0.186098 -0.639752   5.25505 176 164 157
   1.4743 -0.705069   5.78965 144 146 145
  0.52211 -0.706538   5.36296 163 142 124
-0.352744  -1.03696   7.18738 6 5 7
  1.20399 -0.800711    5.6706 67 59 55
 1.13147 -0.80039  5.67582 66 59 51
-0.894071 -0.782285    5.2179 82 79 94
-0.841051 -0.808833   5.21509 144 139 138
 0.630487 -0.906382   5.54525 177 159 150
    1.756 -0.928065    5.6693 62 49 46
-0.0444085   -1.21103    6.95866 32 31 30
-0.107548  -1.24824   6.94104 51 46 42
  1.25402 -0.986816    5.6228 163 149 141
   1.4258 -0.994982    5.5865 115 108 105
-0.661924  -1.27881   6.58424 45 42 43
-0.55247 -1.50693  6.61667 125 112 102
-0.0404393   -1.55358    6.74572 125 117 111
-0.805946    -1.637   6.45385 118 110 102
-0.498578   2.62558   7.50167 183 182 177
-0.315219   2.16717   6.85666 140 128 115
-0.902432   1.71406   6.64124 144 141 141
-0.581826   1.49345    6.1999 75 72 79
-0.149357   1.42289   6.05052 61 57 64
-0.26248   1.4278  6.06642 66 65 69
-0.00683445     1.43433     6.11712 57 55 60
-0.394436    1.4186   6.08123 75 71 77
0.522437  1.43949  6.42118 114 109 104
-0.297561    1.2773    5.9353 59 57 64
-0.236299   1.17949   5.85477 65 64 69
0.574116  1.20584  6.23132 61 57 58
0.327117  1.13026  5.95329 52 49 52
-0.055602   1.09215   5.79467 47 45 49
-0.58799  1.06004  5.85458 68 67 75
0.211543  1.05881  5.84942 43 39 40
-0.184441   1.03495   5.77449 54 48 56
0.438859  1.06201   6.0134 121 107 103
-0.397127  0.996493    5.7754 55 53 59
-0.141172  0.866496   5.68109 54 49 54
0.318827   0.8495  5.82769 120 110 103
0.898371  0.91369  6.39524 70 65 66
-0.854338  0.821503   5.86727 75 73 82
-1.08789 0.853116  6.06656  91  89 101
0.544015 0.830921  5.92943 38 37 39
-0.810043  0.795567   5.85383 151 149 153
-0.556678  0.760798   5.71058 71 63 72
-0.460022  0.727983   5.66351 54 52 57
0.607395 0.769457  5.97728 119 108 103
0.0699448  0.707224   5.65489 44 42 47
 0.68608 0.741783  6.04753 117 108 104
0.349573 0.605913  5.73897 49 46 50
0.497992 0.593399  5.79841 43 39 40
-0.338789  0.546368   5.54179 107 103 102
0.238618 0.502827  5.63299 41 37 41
-0.707414  0.491184   5.66141 74 73 82
-0.560183  0.444488   5.59736 169 157 159
0.681943 0.475204  5.92435 69 64 65
-0.109571  0.385092   5.53579 141 132 128
-0.171099  0.350005   5.52259 88 83 86
 1.58698 0.423092  6.56581 112 103  93
-0.657943  0.335021   5.60664 81 79 92
-0.808003   0.33199    5.6772 72 70 84
  1.2834 0.381347  6.77212 139 115  97
0.822944 0.328254  6.05216 74 70 70
 1.25391 0.323764  6.87137 82 70 64
0.036652 0.230326  5.53733 103  97  94
-0.527615  0.222599    5.5475 66 65 72
-0.717761  0.225607    5.5285 71 67 77
 1.71012 0.200477  6.35071 61 60 67
0.568857 0.175854  5.78916 64 63 62
0.839695  0.18043  6.04316 59 53 52
-0.932183  0.151216   5.73037 139 138 150
 1.92645 0.155063  6.30912 94 85 78
 1.71629 0.151869  6.33035 151 136 125
0.247376 0.124057  5.58052 53 50 50
0.555093 0.114069  5.75054 108 103 100
 0.632337 0.0667999   5.80727 83 80 81
  1.72753 0.0766524   6.29726 142 133 121
-0.475613 0.0360927    5.5272 133 129 127
 0.652399 0.0217732   5.83214 87 83 81
 -0.181723 -0.0419565     5.4752 80 76 74
 0.0953672 -0.0411867    5.49255 119 112 103
  0.689548 -0.0463262     5.8851 52 50 53
  0.127846 -0.0698322     5.5098 102  97  93
-0.212929 -0.124329   5.47373 131 120 109
 0.701725 -0.227278   5.88031 104  94  86
0.141853 -0.24064  5.45922 107  98  86
-0.920107 -0.317398   5.70544 173 170 173
-0.862251 -0.326027   5.64352 148 144 146
 -1.07131 -0.343346   5.87277 148 146 152
 0.459692 -0.393002    5.5941 73 65 61
 0.624018 -0.428512   5.78526 91 87 82
-0.494234  -0.48675   5.22834 140 127 117
 -0.17686 -0.553048   5.22041 99 95 93
-0.228327 -0.565708   5.22175 94 90 87
-0.755575 -0.639576   5.22204 66 57 61
  1.68876 -0.767913   5.61313 120 105  94
-0.878627  -0.74993   5.23552 73 70 79
-0.170759  -1.08099   7.24648 39 34 31
-0.411951  -1.05876   7.13096 28 28 28
  1.16066 -0.842803   5.63609 144 126 109
  1.89616 -0.890521    5.7703 82 70 68
-0.789609 -0.820963   5.21085 78 75 75
-0.170759  -1.16604   7.02777 59 56 56
  0.9966 -0.89378  5.61711 128 115 106
-0.400438  -1.17589   6.91426 12 10 12
-0.782935  -1.16956   6.52904 38 34 35
-0.65306 -1.20001  6.64018 29 26 27
-0.718217  -1.19414   6.58008 63 58 53
-0.181223  -1.26293   6.87721 21 19 21
0.799097 -1.01038  5.63799 108  99  97
-0.787114  -1.21604   6.51638 50 47 46
0.304987 -1.30747  6.71342 91 81 78
-0.977106  -1.26279   6.31618 99 91 87
-0.942408  -1.05278   5.36846 151 134 124
-0.0943532   -1.36829    6.79755 113 100  86
0.487015 -1.30807  6.51643 116 107 108
-0.0354236   -1.40435    6.79641 112 101  90
-0.737887  -1.37805   6.57203 55 52 52
  1.0463 -1.16494  5.73598 177 163 162
-1.08095 -1.18928  5.53688 152 134 122
-0.391095  -1.46545   6.69345 42 39 40
-1.01349 -1.44304  6.29456 39 37 41
-0.551224  -1.58821   6.60876 66 62 59
-1.17969 -1.60312  6.00095 158 143 141
 -1.0838 -1.72621  6.12812 178 167 167
0.22816 2.48352 7.49762 86 76 66
0.332129  2.46764  7.57855 86 71 60
0.334307  2.34351  7.39385 125 107  88
-0.194648   2.07381   6.74917 74 65 63
-0.508221   1.94699   6.63133 94 89 90
-0.252205   1.85978   6.48925 80 75 77
-0.0699084    1.83278    6.48164 99 93 89
-0.44734  1.79306  6.45284 112 105 103
-0.617502     1.806   6.51936 94 91 93
0.504207   1.9407  7.01126 123 110  94
-0.560394   1.76341   6.46126 113 108 108
-1.1533 1.86032 7.08783 146 143 143
-0.541427   1.58266   6.25092 84 82 85
-0.726565   1.63359   6.43088 169 153 150
-0.694671   1.58844   6.37229 89 87 89
0.355487  1.58152  6.43188 64 60 63
0.0390913   1.45418    6.0733 116 106 103
0.389523   1.5266   6.3627 101  96  91
0.0533963   1.42751   6.11867 57 55 60
0.254729  1.45149  6.23355 111 104 100
0.0960177   1.43098   6.14851 56 53 58
-0.653855   1.42085    6.1625 149 144 143
-0.384116   1.36089    6.0039 143 134 132
0.204378  1.37472  6.15283 114 105  99
-0.242802   1.32532   5.96729 59 58 62
-0.450207   1.32194   6.00469 77 76 84
0.294358  1.34273  6.12876 105  99  94
-0.357101   1.20345   5.89021 63 61 67
0.183469   1.1267  5.94204 114 105 100
0.245516  1.11153  5.94447 117 108 102
-0.344209   1.08233    5.8134 49 47 54
0.632836  1.16014  6.26505 103 100  99
0.319646  1.08321   5.9135 120 108 102
0.389769  1.07161  5.97606 119 107 102
0.103812  0.98927  5.76895 38 33 35
-0.315357  0.950624   5.74251 55 49 58
0.0633701  0.929004   5.72496 41 39 43
0.571898 0.971045  6.03831 55 51 52
0.184601 0.905588  5.74364 41 38 41
-0.23086 0.881026   5.7022 54 51 56
0.461197 0.900044  5.90709 110  99  92
-0.374846  0.860715   5.69938 49 46 50
-0.748849  0.881567   5.83572 75 70 80
-0.846822  0.884468   5.88042 82 78 88
0.760108 0.947497  6.22519 118 108 102
 -1.0767 0.892723  6.08928  91  89 101
-0.294065  0.798544   5.66833 72 68 72
-0.36595 0.799899  5.67259 49 44 49
 0.39566 0.819952  5.83195 121 110 108
0.282925 0.811147  5.76865 46 43 44
-0.160604  0.790092   5.64364 43 39 46
0.430608 0.815826  5.84394 114 105 100
0.349912 0.798831  5.79577 46 44 46
0.113721 0.779383  5.70122 40 38 42
-0.686081  0.782249   5.76083 62 57 67
-0.118343  0.752381    5.6392 51 48 54
0.0107211  0.740043   5.64238 41 37 38
0.565959 0.774781   5.9292 112 106 101
0.341804 0.728831  5.74837 39 37 40
  -1.195 0.748418  6.08325 101 100 112
0.459476  0.71659  5.82672 37 35 38
 1.22538 0.864073  7.08733 210 208 200
0.145042 0.613038  5.63311 100  99 100
-0.16921 0.605385  5.57765 51 45 51
0.274326 0.618573  5.68989 38 36 39
-0.432857  0.594935   5.60115 59 56 63
-0.777078  0.577873   5.71811 73 71 79
0.0274686  0.523417   5.57078 55 54 57
-0.315412  0.504241   5.53009 62 60 63
-0.396268  0.513388   5.56695 59 57 60
0.089727 0.493207   5.5871 47 45 49
0.480298 0.498766  5.76283 44 43 46
-1.25481  0.51602   6.0881  95  94 112
1.42527 0.57889 6.73501 109 100  95
-0.367445  0.426204   5.54706 68 67 70
-0.668643  0.413539   5.59258 76 74 89
0.141786 0.402016  5.58781 100  99  95
-0.269059  0.379856   5.52629 54 52 56
-0.787546  0.385593   5.66609 89 87 95
-0.624339  -0.55261    5.2348 130 126 122
 0.208211 -0.548769   5.23573 143 132 122
 0.184928 -0.551688   5.22569 85 84 82
1.88635 -0.5921 5.68211 48 39 41
-0.363769 -0.562861   5.23737 130 126 122
   0.2175 -0.576964   5.23295 141 126 108
  2.03652 -0.631472   5.78854 49 45 49
  1.81312 -0.618008     5.688 130 115 103
0.396647 -0.58629  5.29753 122 112 100
-0.295278 -0.588993   5.24386 151 139 125
-0.400147 -0.595166   5.21518 70 67 70
  1.96427 -0.639142   5.71321 129 113 103
-0.473696 -0.606332    5.2137 91 80 80
-0.0135363   -0.61885    5.28879 158 146 137
-0.498735 -0.613756   5.21195 98 89 87
-0.682921 -0.613976   5.19987 86 84 88
0.328655 -0.62728  5.28853 146 129 113
  1.67119 -0.667678   5.66465 65 62 64
 0.513089 -0.641307   5.35963 49 44 44
 0.348856 -0.636189   5.29088 143 125 110
-0.51819 -0.64056  5.21012 152 133 114
0.490953 -0.65135  5.33643 119 110 102
 0.232069 -0.649047   5.29117 100  93  95
-0.531228 -0.663412   5.22194 83 74 74
-0.575164 -0.665404   5.22174 151 134 119
 0.428617 -0.670717   5.31082 146 133 119
  0.35912 -0.692197   5.30354 98 91 90
 0.569844 -0.708306   5.38435 77 63 56
-0.829945 -0.713301   5.22754 62 59 67
 0.615201 -0.726615   5.40217 61 51 51
-0.225941  -1.02604   7.23057 8 5 6
 0.313177 -0.739234   5.40603 20 18 19
  1.05513 -0.786197   5.76273 69 59 51
-0.491261  -1.01979   7.14412 7 5 6
-0.58175 -1.02441  7.06556 38 35 35
-0.658323 -0.741333   5.26393 85 75 76
 0.745681 -0.770991   5.52239 115 104  96
-0.843815 -0.744548   5.23477 166 165 168
-0.496718  -1.04278   7.09539 47 45 45
 0.955718 -0.804166   5.69102 102  91  80
  1.03569 -0.809982   5.68558 54 45 40
-0.658517  -1.03902   6.92657 41 37 34
 0.665801 -0.786674   5.45073 136 124 115
  1.33644 -0.809268   5.62775 55 46 47
  1.30667 -0.812097   5.63478 168 148 132
 0.509383 -0.780652   5.39487 84 76 77
 0.69099 -0.80521  5.47762 129 115 101
-0.47167 -1.08165  7.04991 34 32 33
  1.78921 -0.822611   5.64107 50 43 44
  1.25363 -0.830526   5.63615 52 44 40
  1.64545 -0.824892   5.60541 57 49 53
 0.806103 -0.836831   5.60636 117  96  85
-0.0679831   -1.11352      7.113 27 25 25
  1.08642 -0.857783   5.64527 92 84 77
-0.924309 -0.820618   5.24019 149 146 148
-0.953538 -0.824323   5.25744 67 65 76
  1.62091 -0.863176   5.57739 63 53 54
  0.81557 -0.876201     5.594 129 111 100
  1.38172 -0.874498    5.5891 50 47 48
 0.766138 -0.880517   5.55873 84 74 71
-0.108274  -1.16559   7.06128 56 52 52
  1.65268 -0.880028   5.59001 73 66 65
  1.26272 -0.900085   5.60165 62 57 55
0.386039  -1.1327  6.80596 21 19 22
  1.19885 -0.904402   5.60808 92 86 81
-0.797229  -1.11359   6.52233 78 72 65
  1.49456 -0.911812   5.57847 93 82 81
-0.860377 -0.878597   5.22911 145 129 119
  1.25867 -0.922731   5.60194 144 129 118
0.169162 -1.19464  6.96162 19 17 18
0.0890826  -1.20228   6.95838 29 27 27
 -1.00983 -0.903278   5.28117 164 157 158
  1.47645 -0.925675   5.55593 178 164 155
-0.716634  -1.15583   6.61489 23 19 22
-0.876094 -0.895639   5.23557 145 135 119
  1.52531 -0.937873   5.57095 143 130 123
 0.950149 -0.958068    5.6271 69 61 62
 0.901036 -0.957888   5.61807 159 149 148
0.398775 -1.17917  6.73413 60 52 45
-0.824826 -0.916747   5.28011 97 92 90
 0.768731 -0.962944   5.60314 128 120 113
 0.731682 -0.962387   5.58362 91 81 81
0.535657 -1.15154  6.52157 79 74 73
-0.882104  -1.14696   6.40803 39 38 38
 0.48874 -1.17288  6.59865 69 62 59
0.0496935  -1.23968   6.90663 63 61 56
-0.627547  -1.20561   6.69664 23 20 21
-0.884876 -0.932571   5.24503 86 82 82
  1.35944 -0.978683   5.61534 187 180 169
  1.44245 -0.977682   5.58156 78 69 70
-0.13866 -1.26634  6.89984 55 52 48
 1.68556 -1.00446  5.67381 67 55 56
-0.690161  -1.22375   6.59124 72 70 68
0.894427 -1.01819  5.65976 164 155 149
   1.652 -1.01087    5.665 151 132 117
-0.823614  -1.21267   6.48309 74 72 73
-0.898935  -1.19983   6.40447 39 39 40
0.256636 -1.26269  6.77564 40 33 30
 1.53117 -1.00665  5.60864 79 71 70
 1.36877 -1.00302  5.56603 159 145 129
-0.0311055   -1.28848     6.8365 25 24 22
0.0707816  -1.28982   6.82539 29 26 23
 1.44987 -1.01849  5.61051 100  89  88
0.953034 -1.02235  5.61349 154 149 148
-0.783673  -1.23769   6.51094 99 98 96
0.360703 -1.26368  6.68306 99 88 83
 1.31368 -1.02783  5.60206 160 145 132
1.17694 -1.0322  5.6118 161 149 143
  1.1314 -1.03219  5.61846 143 136 130
-0.532759  -1.29229   6.68662 69 62 55
0.322205 -1.28767  6.68694 99 85 75
-0.560115  -1.29711   6.67674 84 76 70
-0.0522533   -1.31227    6.77501 37 34 33
0.349391 -1.29144  6.67736 47 39 37
0.955898 -1.07321  5.68498 185 175 171
-0.50877 -1.31832  6.68596 23 20 21
-0.581361  -1.30713   6.63946 40 36 37
 1.62605 -1.08892  5.73851 63 61 62
  1.1522 -1.07499   5.6236 179 158 147
0.131391 -1.33889  6.76805 47 41 36
0.374192 -1.31496  6.64873 95 86 84
0.623483 -1.25821  6.33918 82 80 96
-0.31372 -1.36864  6.77694 38 33 30
-0.469661  -1.35137   6.68989 102  86  77
0.409747 -1.32233  6.60052 109 102 100
-0.667601  -1.34843   6.58273 47 43 47
-0.826054  -1.32929   6.46994 71 67 66
0.284098 -1.37399   6.6801 117 102  92
 1.19745 -1.14226  5.69393 128 124 127
-0.0750464   -1.41215    6.77141 76 71 66
-0.962069  -1.34491   6.35572 57 55 57
-0.362442  -1.42389   6.71746 47 44 45
-0.521125  -1.41388     6.637 121 112 106
0.0968343  -1.43709   6.73278 129 111  98
-0.984144  -1.35514   6.32179 112 108 105
1.30083 -1.1914 5.74913 162 153 154
0.012063 -1.44878  6.74353 134 118 106
-0.757086  -1.41655   6.55037 137 130 126
 1.28376 -1.21616  5.78585 86 85 86
-0.921658  -1.40331    6.3902 111 106 101
0.568943  -1.4056  6.41123 144 138 142
-0.626375  -1.46657   6.58434 47 45 46
-0.524323  -1.48136     6.639 117 104  89
0.648213 -1.37368  6.26684 70 68 80
-0.0158726   -1.50534    6.74439 131 120 115
-0.577977  -1.47415   6.59563 115 107  97
-0.145611  -1.50469   6.73701 56 50 50
0.197484   -1.506  6.67279 63 55 58
0.427953 -1.49796  6.55227 90 85 90
 -0.6111 -1.52312  6.59821 68 63 61
-0.634731  -1.52202   6.56909 112 108 105
-0.957739  -1.47262   6.34825 88 86 87
-1.04405 -1.44484  6.22234 108  98  96
-0.429633  -1.55805   6.64734 63 55 52
 -1.1574 -1.34611  5.66011 160 145 137
-0.914064  -1.54716   6.39158 96 93 94
-0.977607  -1.53102   6.31597 109 104 104
-1.03421 -1.52267    6.254 94 90 90
-0.772235  -1.59322   6.50598 92 87 85
-0.232565  -1.64105    6.7015 159 147 140
-0.451609  -1.62874   6.61433 97 93 87
-0.213471  -1.67451   6.75907 107 104 106
-0.980825  -1.57124   6.30281 112 102  99
-0.449445  -1.66093   6.61803 64 61 62
-0.614574  -1.65321   6.54355 46 41 46
-0.683558  -1.65877   6.53438 73 71 72
-0.894633  -1.62319   6.38219 114 104 101
-0.660134  -1.67948   6.53237 41 39 42
-1.03112 -1.59429  6.20996 90 87 89
-1.08444  -1.5806  6.14627 82 79 81
-1.19042 -1.51857  5.88238 170 149 144
-0.956117  -1.64632   6.31749 108 102 103
-0.454953  -1.74039   6.64886 143 124 116
-0.544173    -1.724   6.57275 58 52 53
-0.705375  -1.71557   6.48826 89 84 82
-1.13308 -1.76018  6.16786 129 129 129
-0.378114   2.69083   7.17164 159 157 151
-0.109746   2.14777   6.83528 105  96  88
-0.00699901      2.0934     6.80292 107 102  95
-0.0557818    2.06855    6.77295 71 65 65
0.118587  2.05693  6.78997 116 106  96
-0.0553957    2.02522     6.7079 133 113  98
0.0414262   2.02968   6.74941 115 106  97
0.0752732   2.03211   6.76362 116 104  95
-0.331226    1.9404   6.57297 74 67 67
0.160114   1.9444  6.68106 109 101  93
-0.200806   1.86639     6.481 83 79 78
-0.135748   1.85662     6.477 73 68 66
-0.314427   1.82503   6.42201 86 84 84
-0.63049  1.87965  6.61719 156 140 137
0.0830387   1.83741   6.52119 68 64 63
0.00490719    1.82165     6.4857 66 62 62
0.122614   1.7988  6.49887 66 62 61
  0.305  1.8114 6.63266 75 70 67
-0.320767   1.66611   6.25411 69 66 67
-0.196397   1.66148   6.24951 65 61 59
-0.127845    1.6586   6.26214 60 55 55
-0.568221   1.65584   6.31552 72 64 66
0.563422  1.82874  6.93256 79 71 66
0.331669  1.71612  6.55476 102  97  87
0.458251  1.64526  6.57459 108 100  92
-0.244662   1.50559   6.11576 59 57 62
-0.137907   1.50281   6.11441 62 59 67
-0.0989934    1.49586     6.1243 64 59 66
0.263301  1.54147  6.31067 98 97 96
0.0491982   1.50394   6.18242 52 48 52
-0.458287   1.50389   6.19762 54 50 56
0.0768397   1.49706    6.1811 57 51 55
-0.791121   1.51055   6.32833 146 139 138
-0.344059    1.4412   6.09527 78 74 75
0.567226  1.58038  6.61639 89 80 74
-0.203015    1.4064   6.04375 57 55 61
0.524296  1.52051  6.50058 110  99  88
-0.214224    1.3823   6.02046 107 103 103
-0.692398   1.42754   6.18624 87 83 94
0.482157   1.4792  6.41846 109 104 100
-0.781589   1.42226    6.2263 86 81 88
-0.336166   1.35477   6.01939 76 72 73
0.134145  1.34809  6.08429 66 63 64
0.225323   1.3248  6.07222 62 60 62
-0.659077   1.27813   6.04012 87 86 93
0.353247  1.29664    6.126 65 63 64
-0.490532   1.24556   5.94933 80 77 83
0.354408  1.25033  6.08039 61 59 61
-0.387431   1.19559   5.88958 189 172 171
-0.0843497    1.16479    5.84997 57 53 57
-0.319142   1.16231   5.84921 66 66 70
0.38058 1.20548 6.06876 60 55 57
0.0418083   1.16047   5.87755 55 53 56
0.661004  1.28585  6.42832 80 77 75
-0.668072   1.16997   5.96351 138 125 124
-0.647746   1.16645   5.96695 78 75 84
-0.112748     1.131    5.8483 61 59 63
-0.379669   1.12835    5.8495 74 71 75
-0.253214   1.10984   5.81686 63 61 70
-0.378756   1.10107   5.81904 133 128 126
-0.228869   1.07082     5.792 116 113 114
-0.80851  1.10936  5.99274  98  96 107
0.21754 1.08399 5.88422 56 53 54
-0.485632   1.06772   5.83029 67 64 72
-0.606613   1.05299    5.8563 69 68 76
-0.452939    1.0253   5.79543 48 39 43
-0.745029   1.04218    5.9197 87 81 89
0.631567  1.10366  6.23773 89 88 87
0.542923   1.0724  6.10317 112  99  93
-0.472554  0.987323   5.75128 71 66 71
-0.418007  0.953672   5.74176 103  99 105
0.128094 0.956409  5.77554 102 100 102
-0.0118348   0.948155    5.73937 52 47 53
-0.384904  0.920737   5.71466 36 31 38
-0.0360802   0.917288     5.7243 90 83 82
-0.480226  0.919035   5.73775 56 50 58
0.358508 0.936137  5.84468 42 40 42
0.810842 0.984397  6.31812 84 77 76
0.483318 0.908203  5.94455 114 104  98
0.552412 0.909937  6.00661 51 45 49
0.831476 0.960464  6.34909 69 65 64
-0.477619   0.79995   5.67824 62 54 61
-0.914117   0.82843   5.89007 76 74 84
 0.76993 0.878209  6.20566 114 108 106
-0.305751  0.753649   5.64294 147 140 139
-0.267826  0.748656   5.62478 126 120 121
-0.136847  0.723224   5.62532 121 118 119
0.831498 0.813229  6.24538 69 64 65
0.170576 0.729739  5.69543 45 43 46
0.441715 0.729055   5.7997 47 42 43
-0.0482332   0.682022    5.61251 111 105 106
0.890338 0.779192  6.29882 67 55 56
0.295053 0.689255  5.72001 47 45 50
0.923758 0.783582  6.36375 114  99  95
-0.317713  0.646131   5.58714 53 51 55
-0.586685  0.643866   5.66569 151 138 133
0.167715 0.635147  5.65676 40 39 41
0.953994 0.705903  6.36328 126 117 113
-0.289228  0.594288     5.563 58 54 58
0.103294 0.596669  5.59218 54 54 57
0.281727 0.584449   5.6844 125 115 107
0.161063 0.575312  5.62293 47 46 48
-1.03619 0.606036  5.90512 78 76 90
-0.273327  0.564403   5.57316 54 49 51
  1.1833 0.716246  6.86097 77 72 69
0.906123 0.616853  6.22966 78 76 76
-0.541454  0.529475   5.60132 63 58 65
0.0249364   0.51346   5.57138 57 56 58
0.360841 0.519175  5.69524 122 118 115
 1.18081 0.641928  6.81323 68 60 58
-0.273574  0.492885   5.54468 63 59 60
1.03356 0.57139  6.4224 99 94 92
  0.3724 0.492114  5.71137 120 113 113
0.380695 0.471004  5.69783 124 116 112
  1.2121 0.574405  6.76362 104  97  92
0.0484089  0.438712   5.56457 61 59 60
0.581888 0.448094  5.81928 111 107 107
0.202522 0.423578  5.59627 51 49 52
0.832681 0.465938  6.07642 94 90 88
 1.26851 0.517659  6.73305 129 118 109
0.0550059  0.401817   5.56005 67 65 66
-0.592627  0.393356   5.59067 120 115 118
-0.853888  0.400049   5.71173 142 139 141
0.702464 0.419597  5.92514 60 58 61
1.23221e-05    0.387402     5.56331 120 111 104
0.397468 0.398619  5.68892 57 54 56
-0.947512  0.386323   5.74784 86 84 97
 -0.8231 0.372805  5.67587 142 138 138
0.830679 0.412163   6.0627 100  96  95
-0.141066  0.356233   5.52849 131 123 116
-0.447321  0.354725   5.52328 67 65 72
 1.40415 0.445085  6.62439 126 113 101
0.446639 0.357812  5.72094 105 104 100
 1.28674 0.438978  6.74677 115 105  98
 1.43727 0.422956  6.59511 125 113 102
0.0101492  0.325818   5.53208 131 122 111
0.718372 0.356414  5.92366 52 48 49
 1.33885 0.407982  6.69284 120 109 100
-0.142442    0.3162   5.52144 135 121 111
-0.00759274    0.291501     5.52718 129 117 109
-1.14465 0.309896  5.89874 86 84 98
-0.762062  0.291456   5.66165 80 76 86
-0.81793 0.285559   5.6728 147 146 153
0.695497 0.299087  5.89551 59 58 62
  0.48444 -0.717737   5.34516 100  94  94
 0.559781 -0.721254   5.37198 164 141 120
  1.83597 -0.763428    5.6494 43 40 41
-0.775022 -0.733115    5.2166 81 77 82
  1.75079 -0.767515   5.61541 52 47 49
  1.87613 -0.780057   5.67544 45 40 43
  1.03649 -0.793385     5.698 91 76 67
 0.996851 -0.803631    5.6997 97 84 69
-0.734798 -0.749237   5.20886 92 83 81
-0.540368  -1.04274   7.02672 45 44 43
-0.682491 -0.767174   5.24599 94 86 80
  1.03618 -0.829283   5.69222 136 115 101
-0.539073  -1.07958   7.05013 16 14 15
 0.894754 -0.834598   5.66503 71 62 57
  1.29447 -0.828708   5.63829 64 53 49
 0.635488 -0.804615   5.45376 132 127 122
0.140163 -1.08888  7.09486 25 19 14
  1.53468 -0.816859   5.57342 50 41 42
  1.09848 -0.836049    5.6506 126 114  98
  1.46743 -0.824133   5.58256 65 60 61
 0.864069 -0.844417    5.6589 55 45 44
  1.37977 -0.831075   5.59953 128 120 114
  1.60729 -0.831404    5.5828 60 56 57
-0.570572  -1.09394   6.95089 11  6  6
  1.24871 -0.846734   5.62079 132 119 110
  1.02535 -0.858969   5.66061 125 115 108
 0.635921 -0.829788     5.458 128 123 118
  1.68004 -0.842436    5.5905 114 101  93
 0.849719 -0.859946    5.6404 142 125 117
  1.76674 -0.849095   5.62575 62 52 49
  1.34387 -0.855013   5.60894 125 114 103
  1.75005 -0.863103    5.6278 115  92  78
  1.47058 -0.862474   5.59029 61 56 59
-0.775331 -0.830278    5.2172 80 72 74
 0.744936 -0.883591   5.53373 134 119 111
  1.62714 -0.883629   5.57718 138 122 113
 0.857555 -0.900771    5.6173 162 141 127
 0.806166 -0.902001    5.5924 89 86 86
 1.67308 -0.89223   5.5993 143 136 131
-0.762373  -1.11436   6.61937 22 17 17
0.410983 -1.13629  6.78029 67 63 58
  1.20902 -0.915391   5.57833 131 121 109
 0.954301 -0.930369   5.61976 113 108 107
-0.179012  -1.21412   7.03589 29 27 28
0.351558 -1.17541  6.81606 20 15 15
-0.845587  -0.88717   5.23337 85 80 82
-0.573288  -1.18949   6.76854 14 11 12
-0.844464 -0.908266   5.24213 118 112 109
  1.62925 -0.949479   5.61364 75 69 66
-0.664083  -1.19098   6.66015 20 18 19
  1.47501 -0.949597   5.56307 86 71 71
-0.204665  -1.25048   6.92403 14 13 15
  1.69832 -0.979225   5.66867 152 124 107
-0.716233  -1.20853   6.58223 75 71 69
-0.874661   -1.1748   6.41025 101  95  94
-0.673606  -1.21735   6.61688 38 35 32
  1.61235 -0.994052   5.63286 159 140 126
0.273518 -1.24437  6.77017 63 56 50
-0.960467  -1.16171   6.29781 77 76 76
-0.0318757   -1.25766    6.80609 53 51 47
-0.601131  -1.24327   6.67295 39 38 33
  1.49882 -0.997045   5.59743 151 135 127
0.529754 -1.20409  6.50845 61 57 61
-0.295966  -1.28706   6.82977 17 14 16
0.330201 -1.25956  6.69421 45 36 35
-0.645817  -1.25361   6.59807 35 32 33
-0.754854  -1.24053   6.52435 49 47 48
-0.558857  -1.27549    6.6988 28 23 23
-0.354329  -1.31317   6.80213 45 44 41
-0.247878  -1.32235   6.81421 27 24 24
0.507898 -1.25545  6.49424 72 68 69
-0.75083 -1.27955  6.53693 62 58 58
-0.669003  -1.29414    6.5742 41 38 40
-0.643037  -1.30545    6.5544 45 42 42
0.104373 -1.34509   6.7655 98 86 72
 1.58552 -1.09785  5.68954 74 71 71
0.0135339  -1.36766   6.80479 52 47 44
-0.808074  -1.31586   6.50731 56 54 55
-0.963889  -1.27908    6.3343 114 107 102
 1.56012 -1.13361  5.77093 87 81 81
0.112355  -1.3888  6.75458 107  92  79
-0.250167  -1.39587   6.75869 92 88 84
0.308449 -1.37846  6.64757 76 70 67
-0.470756  -1.39867   6.67754 108 102  97
 0.40961 -1.37108  6.59975 105 101 101
-0.268482  -1.41683   6.75083 54 51 48
0.0629295  -1.41059   6.73727 122 107  94
0.278749 -1.40814  6.66833 109 103  99
-0.726995  -1.69561   6.46395 41 36 39
-1.12159 -1.63474  6.06706 52 49 50
-0.857245  -1.72643   6.36429 89 86 86
-0.742595  -1.76133   6.42009 100  89  84
-1.09974 -1.69461  6.12377 82 79 80
-0.572168  -1.71431   6.52521 109  96  83
-1.01406 -1.62182  6.20921 72 69 71
-1.12778 -1.56493  6.02381 47 46 50
-1.09846 -1.58417  6.10423 37 34 40
-1.13643 -1.53795  6.02263 92 90 93
-0.86922   -1.625  6.39111 41 38 40
-0.436796  -1.68191    6.6191 112 102  99
-0.952104  -1.59627   6.33848 63 60 62
-0.932271   -1.5871   6.33988 126 120 117
-1.16682 -1.44221  5.87359 48 46 49
-0.906645  -1.60186   6.47772 91 87 84
-1.31742  -1.3674  5.64162 166 165 171
-0.62519 -1.59735  6.56104 50 49 48
-0.858537  -1.55511   6.44113 73 65 63
-0.302298  -1.60168   6.68457 66 61 64
-0.184639  -1.58904     6.647 76 68 69
-0.40778 -1.57455  6.64939 119 107 100
-0.870485  -1.50849   6.43161 136 126 123
-0.0354368   -1.57119    6.72378 76 69 64
-1.16561 -1.26448  5.54305 155 140 133
-0.799815   -1.4919   6.49278 118 108 107
-0.176067  -1.53421   6.74027 118 113 109
-0.120453  -1.52784   6.72354 131 123 118
-0.704863  -1.49466    6.5745 122 117 109
-0.266173  -1.51654   6.71136 67 61 62
0.655565  -1.3933  6.26035 167 157 157
-0.892456  -1.44809   6.42673 48 44 44
-1.26118 -1.20363  5.50349 120 118 134
-0.338434  -1.48667   6.69582 51 48 50
-0.887799   -1.4244    6.4304 111 107 103
 0.31728 -1.45479   6.6266 61 53 54
0.627385 -1.36233  6.26596 144 138 143
-0.185566  -1.48558   6.73941 49 46 49
-1.10443 -1.35359  6.15826 85 80 80
-0.0360834   -1.48078    6.74527 80 73 74
-1.07253 -1.35404  6.19246 92 87 87
0.474821   -1.401  6.51185 82 77 82
-0.316585   -1.4562   6.73036 58 50 51
 1.26774 -1.20096  5.77956 166 159 162
-1.09562 -1.31799  6.14024 94 88 87
0.543719 -1.36988  6.45334  97  96 106
0.199872 -1.42301   6.6979 113 104  98
-0.721708 -0.704387   5.19478 141 136 132
-0.581475 -0.704251   5.23033 83 73 71
 0.458496 -0.683652   5.32241 149 136 123
   1.7943 -0.708145    5.6393 49 41 45
  1.89015 -0.712401    5.6752 123 119 118
  1.61797 -0.709908   5.63224 69 66 66
-0.746585 -0.672765   5.21286 79 72 74
-0.761787 -0.667725     5.211 151 149 155
-0.549501 -0.653768   5.24021 147 132 115
  1.78787 -0.678879   5.63404 47 43 45
 0.451895 -0.647857   5.31051 126 120 113
0.205553 -0.59756  5.24775 115 105  96
  1.89018 -0.631283    5.6852 41 35 39
-0.0423049  -0.585521    5.23342 164 147 131
 -0.47206 -0.577511   5.20122 95 89 87
 0.461361 -0.585622   5.34339 105  96  87
  1.91603 -0.613017   5.70592 54 42 41
-0.0439951   -0.56947    5.24271 86 76 71
-0.275964 -0.567196   5.21923 81 72 68
-0.0859679   -0.56595    5.23317 75 67 66
-0.0634168  -0.566991    5.22777 141 128 108
 1.84787 -0.59892  5.68448 144 122 112
-0.459879 -0.564191   5.20133 138 128 121
 0.396344 -0.565424   5.30031 50 43 42
 0.428452 -0.565823   5.31803 102  96  91
-0.525143 -0.563562   5.21443 85 78 79
-0.371292  -0.54642   5.21351 93 88 87
-0.589912 -0.545547   5.22256 124 121 119
0.0988785 -0.531662   5.22597 89 83 80
0.219684 -0.52906  5.22648 75 71 68
0.255292 -0.53276  5.24924 124 119 108
  2.00821 -0.564377    5.7631 39 37 41
 -0.36075 -0.522551   5.20991 140 130 122
-0.157521 -0.521333   5.23137 133 124 115
-0.0910577  -0.515723    5.21552 91 85 84
-0.237178 -0.506438   5.20878 141 130 114
0.220251 -0.50299  5.23673 63 53 52
  1.81615 -0.533904   5.73512 102  94  89
 0.309579 -0.499467   5.28189 78 71 64
-0.462601 -0.495473   5.21614 72 58 56
-0.296713 -0.494713   5.20888 149 139 130
-0.429319 -0.493888   5.20941 68 54 54
  1.86946 -0.509824   5.75378 122 104  89
 0.183571 -0.464806   5.23792 61 54 49
-0.378475 -0.465436   5.22296 116 107 102
  1.88827 -0.488679   5.75134 117  99  92
 0.284599 -0.454645   5.28287 49 44 43
-0.0552773  -0.448775    5.22513 85 80 77
-0.243299 -0.448758   5.20775 82 65 56
 0.238375 -0.443018   5.27703 85 79 73
 0.115352 -0.435055   5.23431 64 55 51
 -0.46915 -0.436872   5.26454 151 136 123
   1.9604 -0.458144   5.76859 63 53 48
-0.44542 -0.43114  5.24631 145 133 119
 0.117685 -0.419084   5.24068 103  93  81
-0.289669 -0.419764   5.22458 118 108 100
-0.164184 -0.419428   5.22821 65 59 59
-0.0828816  -0.414356    5.22846 74 65 62
  1.90918 -0.441191   5.78491 81 71 69
  2.00965 -0.429553   5.81079 43 36 36
-0.145137 -0.396521   5.23854 71 67 68
0.602926 -0.42892  5.76653 104  99  94
 0.133389 -0.371228   5.31803 58 54 52
 0.685042 -0.393233   5.86451 100  94  87
0.0994239 -0.346408   5.33803 55 51 49
-0.882391 -0.365763   5.66431 177 172 173
0.580652 -0.35059  5.74282 109 100  90
0.00977247   -0.32768    5.33587 75 68 62
 0.189868 -0.325572   5.40425 69 62 60
  1.90417 -0.326374   5.86828 61 57 61
  1.87475 -0.297006   5.91889 110 107 108
-0.0130184  -0.276584    5.36088 118 104  91
0.160502  -0.2735  5.40249 105  98  85
 0.211121 -0.267912   5.46536 95 87 77
 0.366061 -0.267695   5.56038 102  95  84
-0.842848 -0.232142   5.63145 165 163 167
-0.608952 -0.215309   5.51249 166 153 144
 0.919575 -0.227478   6.23951 73 68 64
  1.86655 -0.198211   6.02593 69 67 73
  1.91078 -0.195501   5.97021 91 89 90
  1.82488 -0.191611   6.06629 115 113 115
-0.631076 -0.189046   5.51073 155 150 147
 0.746708 -0.188093   5.94353 68 64 62
 0.594895 -0.180326    5.7781 114 105  97
 0.768222 -0.182315   5.97021 98 93 89
-0.526707 -0.166155   5.47254 161 150 146
 0.916075 -0.168752   6.21061 96 90 87
  1.85025 -0.156967   6.06391 131 127 126
  1.78971 -0.143138    6.1957 71 66 70
-0.504965 -0.135525   5.47245 155 145 138
  1.80742 -0.132233    6.1284 59 57 65
0.0841572 -0.113656   5.48584 124 113  97
 0.174515 -0.112235   5.51316 53 48 48
-0.588597 -0.114049   5.50187 152 145 144
 0.514195 -0.100299   5.70699 110 101  95
   2.04981 -0.0828584    6.07862 91 81 73
 -0.433988 -0.0802102    5.45898 140 130 126
  0.853788 -0.0726104    6.08045 103  97  94
  0.187346 -0.0629013    5.52442 110 106  95
 0.0577852 -0.0584419    5.49729 59 54 53
  0.390811 -0.0381858    5.63348 100  97  92
 0.0116854 -0.0362236    5.48682 113 109 103
  0.492136 -0.0351809    5.69977 74 70 74
  0.199688 -0.0238144    5.53567 45 42 41
 -0.862851 -0.0276189    5.67939 155 155 163
  0.911372 -0.0121854    6.15166 45 40 43
 -0.833398 -0.0205239    5.66719 124 122 134
 -0.0280428 -0.00836205     5.49109 65 62 60
   0.276446 -0.00819374     5.58099 124 111  99
   0.306785 -0.00351651     5.59402 112 103  96
  2.02568 0.0140186   6.22627 109  96  83
-0.126328 0.0012467   5.47287 71 69 69
-0.0392072 0.00254073    5.48042 128 117 105
  1.93689 0.0238013   6.14706 110 107 102
0.00575533 0.00916134    5.49288 74 69 64
 -0.928762 0.00601008    5.71792 104 106 124
 0.425224 0.0342102   5.66594 52 48 49
  -1.2121 0.0330229   5.97882 103 101 121
-0.666067 0.0376896   5.56737 104 104 108
-0.420836 0.0493852   5.49531 148 140 134
-0.684799 0.0511322   5.57485 79 75 87
0.0505293 0.0563751   5.51137 70 66 64
 -1.08843 0.0638609    5.8322 110 109 129
-0.569534 0.0675747   5.53283 135 135 136
-0.932051 0.0699785   5.73125  99  99 118
-0.889728 0.0690327   5.70139  97  97 116
  0.78959 0.0894456   5.97905 129 115 108
-0.267355 0.0833568   5.49127 74 70 71
0.0806159 0.0842685   5.51951 124 114 104
0.550526 0.102794  5.77132 114 109 104
 0.29207 0.101541  5.59989 54 52 51
-0.118733   0.11107   5.49467 119 107  98
0.403792 0.131066  5.66042 118 109  98
-1.00534 0.126514  5.78064  97  97 115
-0.451268  0.121261   5.50804 77 75 82
0.810732 0.152328  6.00701 113 103  96
-0.374388   0.13506   5.50619 138 134 127
0.278859  0.14363  5.60075 103 101  95
0.171307 0.143653  5.55537 63 59 57
0.0881904  0.145371   5.52856 124 114 104
0.944872  0.17518  6.19058 109  99  92
 1.57529 0.191995  6.52441 127 115 103
0.372708 0.163443  5.64894 114 109 100
0.627017 0.180793  5.82509 56 53 54
 1.44754 0.226809  6.70311 121 104  88
0.00459511   0.177538    5.49071 124 114 105
 1.49582 0.231761  6.56906 91 79 73
 1.90797 0.229678  6.38587 229 228 220
0.0347844  0.183115   5.51697 131 119 110
-0.379343   0.18769   5.51269 130 126 125
 0.39654 0.200134  5.67805 91 89 87
0.673255 0.217002   5.8699 59 58 61
-0.244765  0.195849   5.49633 139 130 118
0.541766 0.214922  5.76349 107 107 107
0.702761 0.220791  5.90111 112 109 108
 -1.0104 0.207904  5.78386  93  91 107
-0.285908  0.198648   5.49814 132 123 112
0.587854 0.228545  5.79944 57 57 58
1.68262 0.26115 6.39457 82 81 79
0.884606  0.24696  6.10692 71 65 62
-0.448231  0.212221   5.53298 73 69 76
0.812269 0.260215  6.02178 55 51 52
 1.58698 0.294762   6.4726 142 111  87
0.408386 0.249667  5.68194 118 111 106
-0.782493   0.24533   5.64361 68 65 76
0.774016 0.273065   5.9727 45 43 46
-0.223514  0.247294    5.5108 142 132 125
-0.424894  0.254281   5.52564 71 68 74
0.492321 0.280574  5.72962 56 53 53
 1.39087 0.341335  6.60297 124 114 104
-0.656678 -0.549778   5.24893 79 73 77
-0.348579 -0.535513   5.21088 79 77 79
-0.218825 -0.533098    5.2203 145 134 128
  -0.5044 -0.527375   5.20661 140 133 129
 0.405083 -0.529478   5.32088 101  93  83
  1.93518 -0.558841    5.7237 110  79  60
 0.115039 -0.520267    5.2308 131 127 119
-0.531333 -0.524265   5.21935 98 93 91
-0.453584 -0.520197   5.20448 71 60 60
 1.77231 -0.55171  5.72677 50 44 45
-0.404108 -0.511411   5.20334 129 120 116
 -0.38583 -0.504065   5.21264 78 66 66
-0.159035 -0.498557    5.2096 88 75 72
 0.183492 -0.490596    5.2383 74 66 64
 0.223491 -0.478484   5.24008 63 57 54
-0.394922 -0.475815   5.21191 70 52 51
 0.295575 -0.471784   5.27958 101  90  76
-0.0195215  -0.467499    5.22687 143 132 119
0.0357903 -0.463093   5.22365 88 78 74
-0.290464 -0.461873   5.22273 143 127 122
 0.241529 -0.458091   5.25683 60 51 47
 -0.52813 -0.459556   5.24944 88 84 82
0.0346214 -0.441823   5.23268 127 115 103
  1.88525 -0.464808   5.76136 104  88  80
 -0.27185 -0.418253   5.23119 85 76 75
0.0624322 -0.413791   5.23793 104  95  89
-0.193864 -0.405172   5.22867 57 51 51
 0.227483 -0.386954   5.35746 61 57 53
-0.0544404  -0.380957    5.26106 101  95  88
-0.293876 -0.378188   5.26687 119 111 102
  0.19092 -0.379162   5.34136 60 56 51
   1.9689 -0.392298   5.81576 98 92 86
 0.206937 -0.362966   5.36071 91 84 75
-0.850234 -0.378731   5.62524 139 135 136
-0.138999 -0.347326   5.28417 64 59 58
 0.246383 -0.349463    5.4101 94 86 77
 0.270241 -0.347421   5.43608 60 57 53
-0.409195 -0.342769   5.33861 96 87 84
-0.314268 -0.335799   5.32488 124 113 104
-0.0314735  -0.330692    5.29793 101  93  82
 0.144376 -0.336104   5.36164 68 65 61
   1.9183 -0.342009   5.85981 125 113 105
 0.166018 -0.325695   5.40328 98 91 82
-0.191042 -0.314716   5.31759 80 76 71
  1.89337 -0.299098   5.90547 52 48 53
-0.418405 -0.291154   5.39736 128 118 108
 0.287945 -0.276088   5.51682 105  98  83
 0.343267 -0.268993   5.54423 84 78 71
   1.8367 -0.263208   6.00762 112 108 106
-0.638725 -0.250272   5.48787 152 144 142
 0.196301 -0.233003   5.48335 117 105  89
-0.626158 -0.227146   5.50032 100  87  83
 0.809367 -0.214901   6.03495 90 84 78
-0.795022 -0.188777   5.61674 115 113 115
-0.819256 -0.185035   5.62788 158 155 159
 -0.76493 -0.184808   5.59622 146 142 142
  1.79886 -0.180179   6.15045 57 52 56
0.0250612 -0.154198   5.47383 133 119 105
-0.980103 -0.152796   5.76874 112 110 125
-0.461323 -0.133154   5.42741 109 104 104
0.0914677 -0.129028   5.47217 121 110  90
-0.534245 -0.133248   5.47828 160 150 146
 0.931625 -0.128259   6.21742 103  95  89
 0.653501 -0.110504   5.83492 101  94  88
    1.9389 -0.0902117    6.05839 74 73 70
 0.0595531 -0.0937109    5.48924 114 105  94
  0.677039 -0.0987215    5.85929 70 66 65
-0.0885583 -0.0854514    5.46526 137 124 111
-0.132752 -0.076825   5.45187 132 118 108
  0.739355 -0.0724218    5.92786 113 103  99
 -0.228498 -0.0657157    5.45406 135 121 111
  0.807867 -0.0559075    6.01773 99 91 87
 -0.303411 -0.0536948    5.44784 141 132 129
 -0.781417 -0.0539706    5.61626 85 84 92
-0.0458657 -0.0279854     5.4721 128 118 106
  0.297403 -0.0283023    5.58247 68 61 61
  -0.31314 -0.0237111    5.46326 88 83 84
 -0.271565 -0.0224163    5.46586 68 59 60
   0.02625 -0.0132127    5.48876 65 64 66
    -1.05291 -0.000640184      5.82236 134 137 155
  1.66328 0.0256683   6.46323 128 117 106
 0.527151 0.0247443   5.73174 73 70 69
  1.71645 0.0355828   6.31235 80 79 79
-0.324251 0.0197628   5.47038 86 81 84
-0.399987 0.0236115   5.50887 141 136 132
-0.347029 0.0256515   5.47189 133 128 123
  0.68583 0.0360176   5.87467 62 59 61
 0.757971 0.0466904   5.95042 55 52 54
0.0831311 0.0392164   5.51336 131 117 101
-0.148204 0.0438231   5.47884 124 113 106
-0.566156 0.0493213   5.53875 92 92 99
 0.397562 0.0567685   5.65384 55 52 53
  0.56047 0.0602142   5.76211 60 56 57
 0.507372 0.0730264   5.72207 98 94 90
-0.391394 0.0640161   5.48586 141 136 130
0.0159686   0.07143   5.50861 120 111 101
 0.672627 0.0933404   5.86102 60 55 59
-0.0515677   0.102063    5.49229 134 119 107
-0.727668   0.10595   5.60648  87  86 107
-0.536879  0.105632   5.54198 120 120 124
-0.517888    0.1159   5.53025 74 72 83
-0.210875  0.116001   5.48137 129 123 115
  1.5922 0.163683  6.48146 120 110 101
-0.654545  0.123561   5.58105 86 84 98
-0.326419  0.132369   5.50393 133 129 126
  1.7994 0.175633  6.30443 99 95 92
-1.02935 0.146711  5.79982 166 163 173
 1.59089 0.186182  6.41132 76 70 67
 -1.0542 0.162463  5.81903  98  97 122
 1.52074 0.230212  6.55319 131 118 102
-0.87781 0.181937   5.6908  92  91 111
0.0718039  0.186136   5.53816 133 119 108
-0.925247  0.193952   5.72928  94  92 112
-0.308139  0.193663   5.50227 69 66 70
 1.35849 0.266686  6.81888 156 138 121
0.280039 0.212819  5.59722 52 50 52
0.456616 0.221286  5.69938 75 73 74
 1.59304 0.263729  6.44995 136 113  91
0.509464 0.226969  5.73751 56 54 55
-0.483024  0.223031   5.53124 76 74 81
 0.34431 0.236674   5.6426 122 116 109
0.907118 0.270198  6.14774 92 86 83
 1.76417 0.301132  6.42793 85 76 68
 1.43585 0.309972  6.64098 123 110  98
 1.5701 0.31339 6.47922 118  90  69
0.303727  0.26878  5.61946 114 108 100
 1.33975 0.347633  6.69142 144 122 105
-0.660128  0.282143   5.59961 76 75 88
-0.601271  0.282218    5.5701 72 70 80
-0.213483  0.288067   5.51208 134 125 119
-0.267465  0.298249   5.51787 120 114 109
-0.842628  0.308904   5.69573 149 147 149
0.458152 0.319253  5.72128 45 43 45
-1.00104 0.314842  5.76608 87 61 63
-0.744381  0.306983    5.6426 156 147 151
-0.896189  0.335985   5.71699 134 131 135
-0.430625  0.325329   5.54472 75 74 81
 1.26582 0.422078   6.7386 102  93  86
 0.52514 0.355759  5.77963 65 64 64
-1.08022 0.368395   5.8703 147 144 154
-1.25006 0.385725  6.03867 104 103 121
-0.320724  0.357462   5.51813 73 72 76
-0.691241  0.376933   5.62835 146 144 150
 1.01643 0.467444  6.36654 68 64 64
0.729944 0.435505  5.95724 113 108 105
-0.32264 0.396017  5.53309 60 58 62
0.194834 0.407009  5.61095 109 106 103
0.522441 0.421706  5.76894 48 48 50
-0.665466  0.418517   5.63482 75 73 86
-0.216222  0.410875     5.522 125 118 111
-0.780249  0.426807   5.68953 87 86 91
-0.34667 0.420682  5.51678 71 70 72
 1.40072 0.537377  6.67811 128 115 106
-0.715726   0.43557   5.65493 78 77 89
-0.126695  0.431211   5.54173 146 127 115
-0.966453  0.454308   5.79569 83 81 95
-0.487091  0.435673   5.57806 77 74 80
 1.25901 0.569066  6.72814 125 113 103
-0.782182  0.467459   5.69006 76 69 74
-0.285357  0.455864   5.53541 64 62 64
-0.149028  0.479468    5.5476 137 125 121
-0.578987  0.484967   5.60093 67 59 65
-0.254388  0.489954   5.54451 78 71 69
 1.29706 0.627893  6.75955 123 114 108
 0.50042 0.520337  5.77197 49 47 51
 0.54521 0.532566   5.8132 43 40 42
 1.18423 0.678174  6.83894 66 56 56
-0.200684  0.542144   5.55458 46 41 46
0.886321 0.645354  6.19936 110 103 102
0.0644031  0.579663   5.60389 114 114 113
0.406614 0.600951  5.74755 44 42 44
0.801435 0.645819   6.1077 58 54 56
0.737439 0.652159   6.0481 112 105 102
0.769705 0.668727  6.10304 70 65 65
 0.29111 0.648504  5.69959 74 73 77
 0.59875 0.677412  5.91789 54 52 54
-0.0552973   0.647485    5.60916 45 40 43
0.330348 0.665411  5.71833 48 47 51
-0.200888  0.657499   5.61151 51 50 54
-0.591053  0.666118   5.66585 71 60 65
-0.440651  0.657501   5.60704 52 48 52
0.147127 0.706371  5.65559 56 53 59
-0.277122  0.702716   5.62308 105 100  99
-0.797075  0.761424   5.80003 141 133 139
-0.374143  0.735758   5.64018 51 48 55
-0.157166   0.73144   5.60523 68 65 68
-0.0481681   0.735905    5.62763 57 51 53
-0.211307  0.754732   5.63265 52 47 50
-0.479114  0.768921   5.67459 160 143 137
-0.798886  0.797148   5.82126 182 180 183
0.750504 0.858404  6.18627 56 54 58
-1.20259 0.872458  6.18927 167 166 172
-0.329156  0.804568   5.67263 153 140 139
0.200771 0.835192  5.76572 49 44 48
0.229371 0.830713  5.74852 48 45 47
-1.19791 0.909599  6.21566 113 110 124
-0.808632  0.856458   5.86258 160 150 150
-0.960727  0.877591   5.96135 48 45 52
0.431966 0.893835  5.90687 46 45 48
-0.785654  0.880068   5.84055 144 135 137
-0.423557  0.875041   5.71119 49 47 51
-0.0868333   0.874054    5.69913 44 42 45
0.543334  0.93651   6.0003 99 90 91
-0.175915  0.883566   5.70248 61 55 60
0.329322 0.921316  5.83997 104 102 104
0.747483  1.00132  6.26134 60 57 59
-0.653643  0.928248   5.81269 68 65 70
-0.168407  0.937585   5.71795 64 59 66
-0.907191   0.99669   6.00194  93  91 104
-0.220521  0.945919    5.7209 54 51 56
-0.35044 0.972913  5.75008 132 122 122
-0.15873 0.983143  5.74754 48 43 49
-0.0987747   0.984887    5.73301 39 37 42
0.677109  1.10017  6.26453 111 109 106
0.371049  1.03856  5.91415 52 50 53
-1.05582  1.13017   6.2297 158 156 162
-0.236363   1.03735   5.78046 92 90 91
-0.441933   1.04927   5.80069 149 129 123
-0.103372   1.04871   5.75772 49 47 53
-0.6671 1.09478    5.91 159 147 148
-0.436328   1.07255   5.81179 61 56 60
-0.290849   1.08468   5.80286 44 43 48
0.101577  1.09305  5.83925 46 44 47
0.0397694   1.10546   5.83333 50 48 52
-0.41918    1.109  5.83175 59 56 65
-0.00893423     1.11045     5.84371 51 49 54
-0.531439   1.14604   5.91518 77 76 82
-0.343327   1.12722   5.81925 112 110 113
-0.088988   1.14382   5.84264 119 115 114
-0.358049   1.15886   5.86073 71 69 77
-0.841955   1.26723   6.14811  95  93 105
-0.430629   1.22718   5.91654 69 67 71
-0.750867   1.28307   6.09331  99  97 108
-0.0931985     1.2783    5.94297 57 56 61
0.262058  1.32281   6.1124 56 55 57
0.0835836   1.34657    6.0431 61 59 61
-0.0217873    1.33849    5.98758 61 59 63
-0.0986078    1.34542    6.00382 62 61 65
-0.362278   1.38045    6.0439 137 127 128
-0.62017  1.57639  6.26379 88 84 85
-0.586981   1.59163   6.27627 87 83 85
-0.36732  1.62738  6.27424 72 72 75
-0.959501   1.76663   6.72402 124 122 122
-0.46157   1.6388    6.273 145 134 129
0.304117  1.72494  6.53465 74 70 69
-0.469096   1.70294   6.39724 71 63 68
-0.159946    1.6752   6.29396 68 62 63
-0.73957  1.74537  6.51383 99 98 99
-0.678619   1.74163   6.50089 127 125 123
-0.282015   1.68446    6.3042 69 65 62
-0.103636   1.71397   6.34056 77 73 74
0.366608  1.86914  6.81418 113 101  90
0.394958  1.86038  6.75469 70 61 58
0.36462 1.88415 6.76436 68 59 58
0.0907786   1.80075   6.48712 94 90 88
-0.361575    1.7773   6.38933 91 87 88
0.134133  1.89656  6.65493 100  87  76
-0.458767   1.83949    6.4792 90 86 87
-0.821737   1.98646   6.88282 161 148 138
-0.540446   1.88557   6.56793 148 124 112
-0.245078   1.92165   6.57058 143 114  98
-0.154559   1.92001   6.56455 146 116 101
0.084767  1.96396  6.69049 103  94  87
0.0245803   1.95624    6.6536 100  93  87
-0.0286736    1.95881    6.62535 116 105  94
-0.29271  1.95092  6.58706 85 80 79
-0.464049   2.00199   6.68145 144 125 117
-0.0926229    2.05527    6.72935 74 69 68
-0.719421   2.12887   6.92653 140 128 118
-0.0810748    2.13871    6.85473 120 109 100
-0.114083    2.5192    7.3183 81 68 65
-0.953212  -1.71584   6.26383 103  94  93
-0.905029   -1.7254   6.32239 106  96  95
-0.819385  -1.71134   6.39063 106 101  97
-1.01858 -1.65167  6.22699 86 81 82
-0.667814  -1.70547   6.49813 87 77 68
-0.856597  -1.65085   6.39288 31 29 31
-0.696521  -1.68718    6.5117 44 44 44
-0.265469  -1.70619   6.76059 94 90 87
  -1.115 -1.52143  6.08441 52 49 56
-1.22803 -1.41089  5.70026 166 154 148
-0.531025  -1.62889   6.57616 116 102  93
-0.933559  -1.55839    6.3564 34 31 32
-0.510281  -1.59233   6.62814 114 103  94
-1.01681 -1.49622  6.26889 117 109 107
-0.820673  -1.54482   6.45806 112 102 100
0.0338966  -1.53995   6.73891 131 117 110
 0.29937 -1.48729  6.62563 128 111 103
-0.712052  -1.45964   6.56298 92 88 87
 -0.8057 -1.43559  6.49863 132 121 112
-0.155114  -1.47065   6.74551 119 108  97
0.340286 -1.43339  6.61321 125 111 106
-0.690077  -1.43189   6.57313 118 114 109
-0.558661  -1.43389   6.61658 55 54 52
-0.478215  -1.43923   6.65322 105  98  94
0.509071 -1.37846  6.48607 139 135 142
