ply
format ascii 1.0
element vertex 1191
property float x
property float y
property float z
property uchar red
property uchar green
property uchar blue
end_header
0.959447 0.939241   4.5684 103 109 117
0.945502 0.949818  4.57763 36 46 63
 1.60989 0.951187  4.52155 36 41 67
0.710161 0.977374    4.459 48 59 64
1.59026 0.99706 4.48449  95 108 116
1.54246 0.99442 4.45676 100 108 124
-0.847984  0.755737   3.33743 44 50 56
1.22563 1.05311 4.64864 33 40 59
1.37989 1.00518 4.41375 55 60 83
0.886817  1.05958  4.59867 66 76 87
-0.0016931    -0.7541    4.97997 39 55 60
-0.630183 -0.697238   4.69155  99 104 123
-0.596554 -0.694483   4.71376 106 114 127
-0.565195 -0.688802   4.72372  81  89 105
-0.431437  -0.67289   4.78687 119 125 137
 0.257004 -0.704426   5.01392 160 162 169
  0.20765 -0.689147   5.05542 255 253 239
-0.519491 -0.622276    4.6984 28 51 87
  0.29092 -0.569326    4.9705 77 87 99
 0.362053 -0.576031   5.15496  94 100 116
-0.160694 -0.524183   4.77519 149 153 158
 0.441173 -0.563881   5.19181  96 102 121
-0.208978 -0.512728   4.77089 49 56 83
  1.44946 -0.550303   5.02933 255 255 255
 0.527865 -0.553076   5.21967 78 85 99
 0.706095 -0.551991   5.32357 254 253 254
0.639248 -0.53778  5.26161  93 101 116
  1.15287 -0.554001   5.40616 159 148 156
0.526363 -0.51344  5.18199 52 66 93
  1.26086 -0.540669   5.45834 152 150 152
-0.668903 -0.396632   4.38297  8 20 41
  1.17971 -0.412824   5.39145 25 40 66
  1.11461 -0.406784   5.41099 202 240 254
-0.416659 -0.252535   4.31764 160 150 122
-0.714851 -0.153182   3.56568 113  86  79
0.0919982  -0.12128   4.42799 129 128 130
  -0.75871 -0.0903827    3.53569 172 162 145
-0.529686  -0.10504   4.19653 147 136 122
-0.506057 -0.103049   4.20072 148 138 128
 0.149807 -0.108466   4.44746 156 156 151
 -0.463715 -0.0981996    4.22176 155 146 131
 0.682246 -0.109316   4.87458 114 115 111
  0.296234 -0.0939436    4.51488 159 158 154
 -0.024696 -0.0813193    4.33012 166 155 136
  -0.23928 -0.0737943    4.32837 153 148 127
  0.010554 -0.0743205    4.33357 174 167 150
 -0.216325 -0.0714412    4.33829 149 142 123
 -0.174742 -0.0675176     4.3549 141 125 103
 -0.802491 -0.0481188    3.51919  74  89 110
 0.162709 -0.058228   4.39694 161 142 118
 -0.903106 -0.0385958    3.50282  65 100 137
   0.27944 -0.0482542     4.4585 167 149 124
  0.683472 -0.0551904    4.84524 38 48 73
  0.300771 -0.0451321    4.47005 167 152 121
 -0.256964 -0.0399525    4.33541 154 140 112
  0.325879 -0.0414815    4.47716 167 153 132
 -0.758538 -0.0289388    3.52122 164 158 139
  0.34758 -0.038253   4.48856 170 155 129
  0.765315 -0.0404225    4.86883  97 137 179
   1.30277 -0.0359352    4.75845 43 52 83
 -0.585561 -0.0213629    4.17107 152 145 126
  0.467544 -0.0243776    4.54485 166 152 120
  0.493807 -0.0213982    4.56132 171 156 134
   1.44676 -0.0222269     4.6031 176 162 137
 -0.544527 -0.0168582    4.18501 155 150 133
    1.4704 -0.0197502    4.60778 180 161 130
    1.3578 -0.0162161    4.60059 254 254 252
   1.53465 -0.0116299    4.64419 182 165 136
  -0.298626 -0.00784285     4.32035 137 114 106
    1.61149 -0.00488284     4.76857 180 167 138
  -0.60531 0.00262306    4.16202 151 142 124
  0.0203842 0.000914379     4.34334 173 161 145
    1.65437 0.000510906     4.78427 181 165 140
   1.18978 0.00403235    4.91386  59  79 116
-0.938427 0.0115162   3.42266 163 155 145
 0.571339 0.0150362   4.70435 158 142 122
 0.193188 0.0202976   4.43079 116 111 106
0.630834 0.021678  4.73767 162 146 119
  1.38669 0.0206166   4.59904 255 254 255
-0.758922 0.0289125   3.50954 169 167 158
-0.0875149  0.0323543    4.39392 128 119 104
 0.351692 0.0375598   4.50876 175 166 155
-0.551359 0.0388037   4.18262 77 63 61
 0.378125 0.0417189   4.51322 173 165 155
-0.00989441   0.0437025     4.32999 170 161 144
-0.634775 0.0422784   3.56891 174 170 166
-0.304948 0.0555326   4.30038 116  91  89
   0.1256 0.0570869   4.39873 170 161 148
-0.486433  0.058079   4.20245 97 92 80
-0.348165 0.0595412   4.27704 163 157 143
-0.604731 0.0606593    4.1525 147 139 127
 0.227479 0.0617522    4.4452 177 166 150
  1.80271 0.0653844    4.7959 171 164 137
-0.256613 0.0643362   4.31639 161 155 148
 0.258712 0.0643264   4.44711 174 163 146
 0.693122 0.0762337   4.77759 162 150 126
-0.952017 0.0672128   3.40816 85 72 75
-0.379074 0.0752219   4.25226 152 142 133
  1.30166 0.0885344   4.70998 138 139 134
 -0.9378 0.072292  3.40959 160 155 148
 0.193154 0.0861274   4.41534 164 158 140
-0.104617 0.0866124   4.39149 143 136 127
0.923578 0.101528  4.88354 158 147 134
0.024598 0.103671  4.33937 171 160 149
-0.758908 0.0905426   3.49632 168 164 152
-0.37962  0.10237  4.24837 147 140 132
0.659879 0.113303  4.76479 161 153 140
0.128755 0.110093  4.38395 171 161 147
0.911878 0.123317  4.88487 108  86  84
 1.44217 0.120404  4.60152 177 168 156
 1.71474 0.124119  4.74233 134 106 108
-0.348064  0.116923   4.26528 160 153 146
0.292895 0.120301  4.46089 165 157 139
0.642541 0.128958  4.73709 124  99  89
 1.18522 0.132583  4.88642 126 128 124
0.147297 0.122474  4.38907 139 128 115
-0.596956  0.105587    3.5732 167 168 168
 1.53508 0.131378  4.64388 178 171 148
 1.59949 0.133794  4.68165 173 165 148
-0.00811035     0.12571      4.3108 166 160 149
0.165419  0.12859  4.39833 166 155 136
0.326007 0.132972   4.4731 172 164 151
 1.31965 0.139032  4.68355 151 153 146
 1.64813 0.139849   4.6981 171 164 146
0.0956308  0.133101   4.36476 169 167 161
  1.0396 0.147719  4.89989 127 124 120
0.522619 0.145311  4.66618 151 139 123
0.564389 0.150605  4.69098 156 150 132
 1.79663 0.161031  4.76987 168 163 147
0.148361 0.149114  4.38566 145 132 121
0.326055 0.157712   4.4687 173 167 161
0.691882 0.169023   4.7598 159 153 141
0.757219 0.171247  4.79008 163 155 143
-0.780078  0.134399   3.47145 163 157 152
 1.20385 0.183858  4.85227 132 133 121
  1.4443 0.174751  4.59481 179 171 159
0.0275009  0.165065   4.32682 169 164 152
0.130782 0.167679  4.37315 168 165 156
0.147303 0.176101   4.3805 127 116 104
0.922285 0.193677  4.86753 160 153 143
-0.841746  0.144187   3.44409  77  88 112
-0.347472  0.174327   4.25418 157 155 144
-0.480967  0.175816   4.21734 117 134 159
 1.03354 0.202241  4.91674 146 141 126
0.326693 0.187934  4.46451 170 166 155
 1.14942 0.209664  4.93457 134 136 139
0.166051 0.187548  4.38786 158 150 124
 1.40859 0.200702   4.5597 181 177 174
0.0964867  0.191627   4.34784 170 165 161
0.132394 0.194819  4.37072 170 163 150
0.149281 0.199176  4.37531 136 126 116
 1.79799 0.217269  4.75781 169 171 159
-1.03351 0.168073  3.34727 101  80  70
-0.594961   0.20614   4.12668 142 134 122
-0.480631  0.206197   4.21113 119 132 158
0.309621 0.217519  4.44967 141 135 116
0.326497  0.21655  4.45733 167 165 155
-0.960737  0.173451    3.3752 113  87  79
0.166449 0.217127  4.38166 155 147 125
 1.68778 0.234129  4.69952 158 152 140
 1.44531 0.232992  4.58152 179 172 165
0.922695 0.250104  4.85417 157 154 147
 1.45983 0.254334  4.58145 121  92  88
-0.481832  0.235991   4.20725 117 135 157
0.384111 0.252511  4.48178 164 160 149
 1.48113 0.258069  4.58454 166 159 138
0.166439 0.251676  4.37385 156 150 131
-0.37885 0.249284  4.21839 156 147 138
   0.327 0.260606  4.44997 167 163 155
 0.63467 0.275905  4.71028 162 151 132
-0.103611   0.25739   4.35533 138 132 128
 1.15306 0.292942  4.90703 128 133 136
 1.71858 0.292626  4.70738 136 113 113
-0.870815  0.221304   3.41606 158 148 130
0.0893671   0.74141   4.23154 111 113 117
0.357701 0.279761  4.46389 163 162 158
0.644673 0.812091  4.60212 72 65 78
-0.491991  0.264082   4.15889  79  81 101
-0.369726  0.729206   4.11774 110 112 113
0.327377 0.280742  4.44601 165 164 162
-0.0761945   0.753373     4.2669 66 60 63
 1.44732 0.292786  4.57073 168 157 138
 1.63461 0.832636   4.5716  0 11 66
-0.820718  0.226406   3.42851 158 146 121
-0.0749483   0.771758    4.25811 72 66 70
0.131525 0.287552  4.34992 164 161 159
-0.757771  0.636136   3.36396 157 150 141
0.148974 0.287746  4.35667 120 112 105
 1.34937 0.860647  4.50726 96 98 96
0.310457 0.304031  4.43149 133 130 118
 1.06259 0.911645  4.80221 112 114 124
 1.80062 0.329094  4.73566 158 157 146
0.973425  0.90217  4.75006 114 118 132
-0.898331   0.24069   3.37303 164 150 129
0.936556 0.899777   4.7282 119 127 137
-0.142986  0.296443   4.32532 58 65 75
 1.15757 0.917495  4.80216 47 50 69
0.327345 0.304593  4.43961 158 158 150
-0.602331  0.667463   3.44877 156 153 141
-0.887097  0.243302   3.39634 163 152 131
 1.03342 0.918352  4.76453 91 88 83
 1.43784 0.320729  4.56429 174 168 152
 1.01189 0.920008  4.76384 95 92 83
-0.869056  0.246047   3.39926 171 151 128
0.617246 0.884359  4.57407  99  98 101
-1.03118  0.24608  3.33243 120  85  71
 1.24141 0.910916  4.66995 71 72 70
0.166496 0.305871   4.3584 150 145 132
1.04148 0.92717 4.77403 77 77 81
 1.15414 0.347578  4.89739 130 139 138
-0.140915  0.816356   4.21305 95 92 86
-0.782029  0.252986   3.44548 165 151 132
 1.02432 0.927354  4.76897 67 71 66
0.0977279  0.309793   4.32829 161 162 159
0.0380361  0.819221    4.1833  99 107 124
0.132744 0.314272  4.34519 158 158 156
 1.30268 0.906346  4.55332  87  94 114
-0.490641  0.304434   4.15137 63 71 87
0.720623 0.910418  4.60661 132 132 143
0.150456  0.31764   4.3507 128 124 119
0.651001 0.905725  4.58054 110 120 140
0.359351 0.334258  4.44567 158 158 154
0.228551 0.832543  4.15935 34 56 92
 0.38793 0.339325  4.46608 162 158 150
0.723801 0.901656  4.45578 88 84 92
 1.38136 0.350749  4.57292 151 150 150
-0.860526  0.685401   3.30747 128 109  97
 1.67257 0.363524  4.67204 80 85 97
-0.620281  0.809334    3.9721  81  84 100
0.142652 0.335468  4.33209 144 149 159
0.744956  0.91184  4.47809 53 65 71
0.167199 0.336068  4.35432 140 148 156
0.978544 0.936759  4.57548 110 112 123
 1.46735 0.355914  4.55563 128 103  98
-0.175946  0.856024   4.18779 55 59 68
 1.51759 0.361211  4.58913 143 121 111
-1.07393 0.679898   3.2095 104  91  82
-0.75654 0.279894  3.45385 163 150 129
-0.48379 0.802928  3.87639 32 41 47
-0.39368 0.332534  4.19471 134 136 138
-0.226628  0.824975   3.99801 27 43 51
0.297571 0.349145  4.41429 145 153 158
-0.214285  0.827363   4.00565 47 62 70
-0.234739  0.346605   4.25225 141 141 138
0.196261 0.862276  4.08368 67 73 89
 1.40893 0.374129  4.53866 156 154 154
0.332892 0.862185  4.05241 44 62 77
 1.46953 0.374331  4.54602 172 169 163
 1.44876 0.972928  4.46066  98 104 111
-0.17407 0.349744  4.27165 136 139 143
0.390434 0.876013   4.0592 61 66 90
 -0.1463 0.354086   4.3014 131 128 130
0.284349 0.866628  4.00941 31 50 63
-0.962839  0.292358   3.35179 90 75 79
0.43631 0.88619 4.04806 26 44 55
-0.592007  0.346678   4.09609 135 131 116
0.213425 0.876968  3.99362 42 61 74
0.0244529   0.37102    4.2768 143 127 100
 1.44755 0.988642   4.3999  97 105 116
0.0474975  0.372031   4.27661 131 112  87
-0.509387  0.861766   3.85827  87  88 105
 1.59273 0.406852  4.60343 154 148 141
 1.36856 0.998981  4.44297 106 119 136
-0.34624 0.370635  4.21476 145 138 122
 1.38347 0.994995  4.42395 105 119 131
-0.733627  0.313114   3.46137 91 77 69
 1.39923 0.990357  4.40195 107 116 130
  1.1508 0.430189  4.88661 123 128 133
1.13497 1.07128 4.77531 107 110 136
 0.30501 0.389349  4.38069 132 117  96
0.493921 0.898527  3.99547 49 59 82
0.674603 0.417382  4.70316 159 159 157
-1.29625 0.793419   3.4306 161 125 107
-0.83447  0.32135  3.43095 140 122 105
0.410573 0.895914    3.974 51 61 81
0.893504 0.439345  4.80512 157 156 154
0.372365 0.890945   3.9473 40 55 72
 1.41165 0.419617  4.51733 171 161 142
1.13438 1.07867 4.76921  6 27 49
-0.166991  0.397703   4.29416 139 135 126
0.317646 0.887104  3.92137 61 73 91
0.147072 0.398528  4.30134 159 151 134
0.746887  1.00787  4.43382 45 60 72
 1.45041 0.426805  4.55014 169 156 137
0.224656 0.902441  3.93532 37 48 73
1.38343 0.42885 4.55488 144 145 135
 0.9735 1.04264 4.53731 62 72 83
-0.512249  0.387049   4.10124 136 133 129
0.353322 0.900729  3.87354 41 60 77
 0.74539 0.441416  4.69705 139 137 140
 0.33046 0.898045  3.85639 38 55 75
-1.00068 0.327117   3.3271 158 155 146
0.718008  1.02403  4.39955  92 101 105
-0.139574  0.414198   4.30432 127 124 117
0.152867 0.908544  3.89957 40 52 65
 1.25397 0.458349  4.73263 91 80 74
 0.57355 0.931487  3.93912 104 117 133
0.976818 0.465962  4.83082 133 129 130
-0.669541  0.813257   3.37677  75  87 107
 1.01528 0.469479  4.85076 125 124 128
-0.247975   0.94056   3.95441 33 49 61
0.652003 0.454302   4.6744 104  79  70
 -0.6369 0.821258  3.38389 52 62 90
0.679955 0.457888   4.6984 101  79  65
-0.440039  0.897394   3.47683 135 120 167
1.56075 0.45472 4.58927 118 113 105
-0.0119964  -0.897816    5.01089 44 58 82
-0.335053  0.416548   4.19821 138 137 130
-0.0212995  -0.875947    4.99609 244 248 242
-0.295779   0.42069   4.21383 137 136 128
-0.0526162  -0.856638    5.00766 253 252 250
0.698848 0.472218  4.70054 151 141 126
-0.787124 -0.552124   3.75235  86 104 127
  1.1841 0.494313  4.81359 118 116 117
-0.187514 -0.697308   4.79648 153 145 147
0.927859 0.495242  4.80669 135 128 112
 0.253238 -0.723933   5.01247 42 45 62
-0.856585  0.366062   3.41095 134 148 166
 0.239713 -0.701604   5.00989 125 129 147
0.624125 0.494311  4.66112 149 148 146
-0.745243  -0.64211    4.5853 34 52 79
0.339508 0.468252  4.39554 82 69 58
 1.45293 -0.66069  5.05178 252 251 254
 1.37359 0.493032  4.54825 99 85 79
-0.374337 -0.601135   4.75279 108 128 160
 1.52666 0.500424  4.57436 96 69 54
 0.251431 -0.628569   4.99459 145 148 157
0.164377 0.468594  4.32784 149 141 124
-0.797186 -0.444209   3.58559 106 100  87
0.301035 0.480744  4.39898 148 140 121
-0.171915 -0.562211   4.77526 82 81 91
0.658671 0.511452  4.65655 137 133 131
-0.172283 -0.549411   4.77241 71 70 78
   1.776 0.526067  4.69141 113  83  82
-0.172187 -0.543827   4.77176 57 57 69
0.913841 0.537283  4.78319 143 143 140
-0.331161 -0.528709   4.70909  86 102 126
0.255392 0.495428  4.36903 142 134 120
-0.172101 -0.506892    4.7637 52 57 70
 -0.1005 0.494376  4.30514 122 118 112
-0.484507 -0.456497   4.56076  61  72 105
1.38715 0.52773 4.53837 139 147 148
1.16223 -0.5173 5.41368 154 157 170
-0.487413    0.4768   4.11898 78 79 77
-0.663899 -0.412964   4.38862  95  95 126
0.328607 0.509013  4.39766 147 139 125
-0.654629  -0.40819    4.3884 31 49 61
-0.602182  0.478314   4.06741 130 129 120
 0.708855 -0.490767   5.27267 123 140 161
1.73586 0.55185 4.66119 100  74  68
  1.24538 -0.508043    5.4522 154 164 162
-0.679998  0.414431    3.4628 147 141 131
 0.715177 -0.475202   5.25535 110 125 146
-0.183524  0.506534   4.27429 70 71 68
  1.17568 -0.466692   5.39865 107  90 111
-0.354082  0.499024   4.18261 133 133 128
-0.315384 -0.391091   4.59926 37 53 81
-0.00716888    0.505002     4.23009 148 146 143
 0.138423 -0.399001   4.73024  76  94 125
0.525674 0.553127  4.58599 144 137 124
-0.723161 -0.300612   3.60911 148 166 191
 0.69639 0.569382   4.6785 141 139 133
-0.650729 -0.290261   3.58272 139 150 179
1.03189 0.60661 4.83876 122 121 111
-0.638783 -0.290564    3.6427 121 136 162
 1.45208 0.584798   4.5159 157 151 148
  1.20357 -0.394329   5.32485  77 100 139
 1.52347 0.595908  4.54431 124  93  95
-0.732793 -0.256273   3.55833 98 77 62
 1.15906 0.632155  4.84107 114 123 125
-1.05455 0.404454  3.28252 171 162 155
-0.946149  0.413371    3.3293 175 161 143
-0.152665  0.516486   4.30258 52 58 63
1.46634 0.55654 4.51919 116  95  83
0.0859908  0.522678   4.26508 111 102  99
-0.749892  0.432516   3.43051 169 157 141
 1.7886 0.58961 4.68152 108  84  78
 1.16071 0.604735  4.84228 120 125 129
 1.25779 0.596288  4.70366 87 73 79
 1.55908 0.589121  4.56262 157 146 140
0.322828  0.57046   4.3829 145 141 131
0.375763 0.588797  4.37551 138 139 138
-0.945527  0.476538   3.31599 175 160 137
 1.56071 0.649865  4.55621 152 143 128
-0.74875  0.49451  3.41756 173 158 143
-0.641398  0.504764   3.45945 166 157 149
0.32401 0.62462 4.37282 139 137 134
0.374664 0.623416  4.36958 142 141 139
-0.663253  0.504076   3.45415 87 64 62
0.37521 0.64826  4.3673 136 138 143
 1.19378 0.740434  4.81835  73  93 106
  1.5623 0.711499  4.54477 147 139 130
 1.33038 0.727125  4.62689 102 131 152
-0.945393  0.539712    3.3026 173 157 134
-0.748189  0.557088   3.40466 166 152 137
 1.46915 0.730485   4.4851 107  78  74
1.52837 0.73454 4.52246 100  79  69
-0.64218  0.56629  3.44948 158 148 137
-0.58528  0.65862  4.03487 38 35 36
0.376809 0.706062  4.35369 134 135 147
 1.19124 0.791466  4.80423 72 86 88
0.325917 0.743412  4.34821 122 123 127
 1.26164 0.833808  4.65629 66 63 64
0.721301  0.83059  4.63721 110 109 110
-0.023645  0.763317   4.18399 70 69 67
 1.03038 0.875395  4.81003 13 14 23
1.17032 0.88419 4.79279  99 108 117
  1.2846 0.856109  4.63592 102 103  99
0.902782 0.874548  4.71941 65 58 61
-0.905437  0.646829   3.29227 156 129 111
 1.26124 0.902315  4.64649 104 111 119
 1.74181 0.907943  4.58608 70 71 83
 1.53357 0.891889  4.48027 82 80 91
 1.40883 0.887384  4.43916 54 58 76
 -1.0014 0.674753  3.23122 186 165 130
-0.930431  0.684315   3.27526 179 158 126
-0.419202  0.829506    4.0648 61 63 78
-0.460127  0.844382   4.00191  95 104 127
0.701571 0.964442  4.48793 63 67 86
1.17562 1.03026 4.74379  81  90 107
 1.50762 0.981051  4.44239 108 117 134
1.25839 1.03938 4.58816 39 40 61
0.889173  1.04732  4.61174 24 27 49
-0.946858   0.77382   3.25945 140 135 129
-0.317917  0.702178   2.66574  99 112 141
-0.282053 -0.689179   4.92288 254 254 252
-0.173015 -0.671557   4.80485 118 117 123
 0.424151 -0.449652   5.06713  74  90 121
-0.297092 -0.401765   4.61674  61  76 105
 0.244068 -0.220165   4.55196  72  76 100
-0.389577 -0.198421   4.31871 136 136 127
 0.289296 -0.190737   4.53774 154 150 140
-0.146965 -0.171303   4.43258 159 159 154
-0.254136 -0.161945   4.37777 162 157 155
 0.245103 -0.158885   4.52366  64  88 122
 -0.115857 -0.0669225    4.40412 131 116  96
  0.823903 -0.0258039     4.8782 160 157 157
   1.21751 -0.0180512    4.87278 150 159 161
   1.73908 0.00567419     4.7942 183 165 141
 0.314964 0.0108856   4.49707 164 157 144
   1.04254 0.00822429    4.98046 132 126 119
-0.445555  0.015281   4.23173 123 114 117
  1.86017 0.0217526   4.81907 136 122 108
 0.365838 0.0982985   4.50533 166 159 149
0.889184 0.109805  4.86834 136 108  98
0.0485463  0.119139   4.34932 152 144 134
 1.27532 0.155595  4.76754 156 153 151
0.618179 0.169534  4.71964 140 129 118
0.893385 0.175667  4.86064 116  93  91
 1.22463 0.177725  4.81311 146 145 148
0.848312 0.188861  4.83198 152 144 136
0.246284  0.19621  4.41669  71  90 124
0.618564  0.21556  4.70913 161 148 131
0.892189 0.222816  4.84537 109  82  81
0.937359 0.251743  4.86875 159 153 149
0.892902 0.271778  4.84287 123  95  90
-1.04449 0.201292  3.32848 87 78 72
0.619999 0.276454  4.70068 160 147 128
0.937869  0.30651  4.85736 154 150 147
-0.0872537   0.288858    4.36565 47 43 37
1.68144 0.32155 4.66368 156 151 130
0.893988  0.32922  4.82384 96 77 72
-1.04434 0.251132  3.31489 112  87  77
0.0531194  0.320077   4.27461 144 147 144
0.851658 0.362469  4.80428 148 140 132
 0.93924 0.360328  4.84765 148 145 138
0.193872 0.335894  4.37606 50 67 87
 1.16073 0.381336  4.88285 129 129 137
-0.739994  0.280453   3.46338 100  72  64
-0.651819  0.288591   3.50837 134 102  91
  1.703 0.39328 4.65754 154 147 130
-0.822321  0.308265   3.42552 176 160 139
0.613755 0.474929  4.66081 137 127 122
0.085313 0.457157  4.28029 99 91 81
0.974465 0.511072  4.81287 131 133 143
-0.000575326      0.48032      4.23573 150 147 150
1.33896 0.53275 4.55352 121 127 121
0.0551852   0.51477    4.2592 152 150 149
 1.08337 0.610325  4.86096 128 131 136
0.898367 0.619005  4.76776 60 49 41
 1.28318 0.613973  4.67874 122 122 120
0.623703 0.619405  4.62846 133 127 123
0.943118 0.648191  4.79033 135 128 127
0.624176 0.675797  4.61483 123 118 118
0.0568002  0.645566   4.23059 142 135 131
 -1.0549 0.528223  3.25541 174 161 142
0.945541 0.764509   4.7672 118 113 118
0.257294 0.702247  4.33343 91 78 59
1.56223 0.76958 4.53321 141 135 120
-0.653217  0.595596   3.44404 93 73 72
0.946421 0.820719  4.75405 115 111 110
-0.722921  0.621809   3.40189 117  95  84
0.947169 0.876001  4.74409 103 104 106
-0.115252  0.791163   4.23431  97  98 102
1.74803 0.87481 4.59372 132 138 137
 1.49117 0.853442  4.46666 140 142 137
0.413412 0.843973  4.31111 103 114 131
-0.976729  0.658993   3.24166  97  95 101
-0.0924116   0.838625    4.24509 82 86 93
-0.878285  0.710234   3.29959 159 152 145
-0.903385  0.768875   3.27162 147 143 150
-0.167806 -0.774277   4.81263 161 152 146
 0.255319 -0.642659   5.00848 123 121 138
-0.175778 -0.514847   4.77044 165 164 167
 0.173545 -0.263921   4.49163 118 102  95
-0.503763 -0.177179   4.26276 131 129 126
 0.294278 -0.120774   4.52183 154 155 151
 -0.661785 -0.0753167     3.5758 102  80  77
  0.397272 -0.0849366    4.57613 43 55 81
 -0.695836 -0.0502581    3.55797 173 172 173
 -0.732384 -0.0259178    3.53585 76 65 67
 -0.454501 -0.0349018     4.2237 155 143 112
 -0.370998 -0.0328045    4.27217 144 136 124
 -0.660213 -0.0220333    3.56878 111  98  95
  -0.32248 -0.0221409     4.3082 143 117 111
  0.878806 -0.0210367    4.90201 41 56 81
   0.992921 -0.00129105      4.9552  64  75 123
-0.733082 0.0318807   3.52337 104  86  85
 -0.89108 0.0286166   3.48207  74 104 144
  1.48222 0.0401009   4.63844 140 107  96
-0.657714 0.0400189   3.55456 121  99  94
-0.364125 0.0605316   4.26658 147 138 129
-0.122635 0.0841011    4.3814 146 136 127
-0.221825  0.102874   4.37739  53  75 109
 1.10933 0.117323   4.9366 107  99  88
 1.55252 0.131542  4.64133 166 158 141
0.254564 0.127654  4.45506 35 56 77
-0.122052  0.143726   4.37522 143 134 122
0.710197 0.169795  4.76422 151 144 136
 1.31565 0.179793  4.69854 45 41 47
-0.362789  0.174911   4.24609 159 154 144
0.66253 0.19128 4.74316 103  75  65
0.939546 0.200948  4.86802 145 137 130
0.663356  0.25173  4.72858 132 107  97
-0.362284  0.234887   4.23302 152 150 145
 1.16015 0.270436  4.90752 127 122 127
-0.522223   0.27655   4.13576 142 135 123
0.664731 0.307569  4.71869 83 64 55
 1.06757 0.328484   4.9113 141 143 138
 1.15906 0.320346  4.89752 138 140 148
-0.965141  0.382826   3.33199 99 77 68
 1.49099 0.530316  4.53598 103  77  69
-0.315143  0.499694   4.19977 75 63 63
-0.823687  0.425786   3.41195 46 59 76
-1.03791 0.434944   3.2833 130 100  97
-0.822423  0.481858   3.39854 56 61 74
 1.42209 0.633963  4.49004 156 152 151
-1.03756 0.499356  3.27354 105  81  72
-0.965954  0.502208   3.30467 74 60 47
-0.82129 0.535556  3.38467 58 59 72
-0.883306  0.592296    3.3352 29 30 36
 1.62965 0.801695  4.56572 11 16 83
 1.01206 0.849736  4.79708  0  6 49
-0.852445  0.647631   3.34506 161 144 120
 1.56778 0.955506  4.53952 115 122 134
-0.109515 -0.586985   4.77308  72  79 110
0.0926529 -0.609959   4.91262  93 102 123
 0.328098 -0.615071   5.00606 203 239 253
  0.53629 -0.173918   4.75207 143 140 137
-0.329844 -0.164754   4.35826 52 60 90
-0.617074 -0.106835   3.60354 171 169 163
 0.774904 -0.149494   4.86299 164 163 157
  1.33595 -0.139623   4.79244  75  87 105
 0.995085 -0.119846   5.00454 143 141 140
  1.45855 -0.102518   4.68152 60 66 84
-0.617158 0.0148016    3.5843 172 171 170
-0.769095 0.0633855   3.49935 168 160 152
-0.708151  0.217272   3.47252 103  81  71
1.00577 0.41812 4.86939 42 51 69
-0.921669  0.304085   3.36858 150 133 125
-0.0617293   0.381612    4.28451 71 58 52
0.0151582  0.411232   4.26052 141 141 130
0.235769 0.411354  4.36531 161 148 134
-0.928762  0.420226   3.35332 165 150 134
-0.771496   0.42747   3.42219 152 134 117
-0.926823  0.487413   3.33701 163 146 127
-0.771924  0.493424   3.40877 157 136 118
0.786237 0.715473  4.70446 21 33 29
-0.926833  0.548793   3.31983 167 148 129
-0.770072  0.556817   3.39353 154 133 121
-0.827906  0.600858   3.38039 37 34 39
  1.2634 0.986568  4.62171  97 102 116
0.780884  0.52426  4.73673 135 130 129
0.897483 0.711354   4.7829 84 71 72
-0.853999   0.58239   3.35912 133 149 163
-0.185841  0.950599   4.14923 36 47 66
  1.51674 -0.301958   4.85947 41 51 81
 -0.214795 0.00870915    4.31087 142 133 126
-0.204108  0.426661   4.23687 118 115 107
-0.847652  0.456489   3.36791 127 144 165
 1.42926 0.641466  4.48133 153 150 151
0.411092 0.690795  4.41748 139 132 125
0.0593323  0.546718    4.2901 143 138 132
 0.548063 -0.345926   5.05812 42 56 81
0.858117 0.525373  4.74054 124 120 113
0.0656966  0.220794   4.34754 155 144 134
  1.73194 -0.302859   4.94445 198 234 255
-1.00722  0.53814  3.24331 122  89  69
1.61127 0.48492 4.59534 126 122 113
  1.62158 0.0451843    4.7236 155 145 129
 0.349918 -0.615765   4.93484 203 239 254
-0.767891  0.743118   3.33687 145 143 143
-0.924785  0.726047   3.29357 164 150 142
0.226001 0.540751  4.36205  73  79 100
0.0205084  0.506289   4.24418 152 148 149
0.547781  0.37538  4.61744 22 36 52
0.236311 0.331509  4.39653 61 75 97
-0.434619  0.285815   4.16835  76  84 102
0.115677 0.160483  4.36709 160 156 151
-0.0687626 -0.0107926    4.38275 82 70 67
-0.200058 -0.256696   4.39969 135 131 131
  1.09509 -0.468624   5.40368 202 238 255
-0.308364 -0.604923   4.78126 72 78 97
-0.00522473   -0.895146      5.0347  93  92 124
-0.697292   0.75435   3.40071 133 128 134
-0.614192     0.764   3.45482 126 132 135
1.38113 0.95426 4.48728 104 116 126
-1.03563 0.378972  3.29736 101  81  80
-0.822211  0.350887   3.42732 48 58 74
 -0.7286 0.345246  3.45267 92 74 74
-0.886539  0.346409   3.39896 44 54 74
0.125497 0.412962  4.28657 154 151 144
-0.966201  0.324332   3.34303 78 64 59
-1.03405 0.316138  3.30667 107  83  77
  1.6207 0.365693  4.62596 34 53 61
-0.219591  0.310269   4.30763 60 69 89
0.00820414   0.288834    4.28168 155 157 161
-0.265314   0.24203   4.28096 146 141 126
-0.509022  0.217335   4.16303 129 123 111
-0.317424  0.207684   4.26026 105  85  85
-0.691613  0.163309   3.51635 153 154 150
0.00529713   0.184145    4.30072 166 165 165
-0.267057  0.185402   4.29286 149 143 137
-0.318382  0.145571   4.27298 93 78 75
-0.763659  0.117557   3.48137 172 162 156
-0.66989 0.113182  3.53539 82 69 58
-0.723179  0.107404   3.51083 89 81 79
 1.48392 0.128527  4.61563 133 110 102
-0.51407 0.099324  4.17892 123 117 109
-0.318839 0.0902432   4.28374 107  86  83
 0.239584 0.0730238   4.43349 167 160 147
0.00300923  0.0730673    4.32583 168 163 159
 0.231632 0.0121619   4.44845 129 123 110
-0.769346 0.0021975   3.51138 163 156 147
   1.73448 -0.0573404    4.79941 36 49 77
  1.38843 -0.147138   4.71966 254 252 253
-0.675371 -0.203674   3.61045 93 77 67
 0.121316 -0.278748   4.51227 214 197 190
-0.783761  0.774565   3.32669 132 131 139
-0.634954  0.698292   3.42164 102  99 103
-0.718514  0.691029   3.37907 115 108 109
-0.842852  0.675872   3.30481 123 118 113
-0.302017  0.801623   4.11475 110 119 127
0.672949 0.889792   4.5929 119 128 138
0.916806 0.904569  4.68207 118 125 134
0.671482  0.83609  4.61235 78 62 60
0.00314084   0.736354    4.18505 126 134 142
0.624155 0.790118  4.59313 116 111 105
 1.07974 0.825014  4.80967 119 126 133
 1.69419 0.785165  4.59869 123 118  98
0.670445  0.76763  4.62811 84 69 70
 1.07892 0.777835  4.81854 118 127 130
0.182351 0.671477  4.30429 89 73 53
 1.69194 0.726254  4.60926 125 122 103
0.669067 0.710498  4.63813 80 70 64
-0.884607  0.530939   3.35236 54 57 69
-0.728867  0.522132   3.41647 102  81  73
0.260281 0.630774  4.35502 95 72 50
0.183982 0.626751  4.32646 96 78 54
 1.69204 0.665526   4.6205 147 141 112
0.935564 0.854657  6.10702 123 120 118
0.668525 0.654613  4.64804 84 73 73
-0.657672  0.471069   3.46326 120  93  83
-0.963579  0.444478   3.31795 115  86  85
-0.689569   0.44827   3.44406 151 124  98
0.668023 0.593531  4.66219 109  89  87
0.945657  0.59984  4.78534 126 120 113
0.847712 0.584489  4.76986 139 137 131
0.720445 0.569338  4.66055 141 140 132
0.621695 0.568889  4.64271 121 117 117
-0.997507  0.418503   3.30711 145 118  95
-0.885311  0.418546    3.3803 52 60 75
 1.69187 0.555577  4.64774 152 141 121
 1.55721 0.546191   4.5609 125 114 104
0.299011 0.507097  4.37546 156 153 144
0.177485 0.493132  4.31474 145 138 128
-0.120288  0.494416   4.29733 120 117 111
-0.659588  0.406912   3.47838 98 76 71
   1.422 0.519651  4.48192 171 160 152
-0.731262  0.401023   3.44555 55 51 38
-0.855976  0.390819   3.40582 122 131 145
-0.69387 0.376131  3.46656 173 162 155
 1.11953 0.503744  4.88126 56 54 45
0.899116 0.494335  4.79382 77 61 52
0.665505 0.473209  4.68411 85 65 57
0.355032 0.435169  4.39873 150 143 130
 1.49206 0.437116  4.56224 130 103  94
-0.317877  0.383046   4.22566 89 76 72
0.367741 0.384995  4.39645 144 128 121
-0.879855  0.300914   3.39415 171 158 138
0.0739615  0.360198   4.26101 94 87 80
 1.55113 0.369107  4.61558 168 161 149
 1.06912 0.380601  4.90308 138 139 141
 1.4853 0.33911 4.56121 137 107 103
-0.360758  0.289702   4.22011 149 148 139
-0.203706  0.507273   4.27056 72 73 73
0.114801 0.486907  4.26797 155 153 154
0.194486 0.488122  4.33832 146 144 135
-0.881847  0.387415   3.38989 121 130 145
-0.642179  0.383096    3.4889 169 159 149
-0.749108  0.371503   3.44293 169 159 141
0.536752 0.477064  4.61734 136 121 102
-0.54271 0.422856  4.10663 85 70 65
-0.582318  0.416698   4.07986 110  85  85
-0.945722  0.351687   3.34245 165 148 128
-1.05615 0.342964  3.29791 167 160 144
 1.68433 0.459067  4.63669 166 160 149
0.0604371  0.399094    4.2769 153 147 137
-0.641851  0.321224   3.49711 168 157 130
 1.39641 0.399151  4.52346 113 108 122
-0.749197  0.309148   3.45643 169 158 140
-0.946091  0.290399   3.35632 165 156 144
 0.62454 0.382465  4.67769 150 144 129
-1.05443 0.280719  3.30783 159 150 128
-0.954154  0.258499   3.36077 121 100  90
 1.23391 0.344296    4.784 132 130 124
-0.739771  0.233447   3.47861 110  91  88
 1.55207 0.300568  4.62051 173 164 157
 1.78315 0.294696  4.73267 119 101  96
 1.23328 0.288366   4.7952 139 136 128
-0.425053  0.238002   4.23041 110 124 151
  1.5515 0.244511  4.64216 178 165 156
-0.397382  0.224301   4.23247  78  90 108
0.0504434  0.211639   4.32946 126 115 101
 1.23179 0.229838  4.80472 141 137 126
0.404658 0.208694  4.50148 122 112 102
-0.893866  0.157029    3.4149 151 145 137
-0.669868  0.154153   3.51909 170 167 168
 1.72133 0.183042  4.73033 126 103 101
0.217867 0.165954  4.43406 115 132 155
-0.982322    0.1248    3.3956 157 160 158
-1.02904 0.118641  3.34467 152 155 152
 1.68734 0.151219  4.71018 160 152 137
 1.86231 0.147221  4.82043 220 244 254
-0.642374 0.0728633    3.5546 176 173 165
0.0476659  0.078017   4.35441 120 108  99
-0.665526 0.0664891   3.55094 111  87  85
  1.68155 0.0569671   4.73523 161 149 131
   1.3283 0.0507098   4.68666 255 255 241
 0.405112 0.0479559   4.53615 175 161 145
-0.946585  0.040303   3.40933 163 161 150
0.0187553 0.0267122    4.3825 135 130 117
 0.0520193 0.00760993    4.36487 163 154 134
 -0.642809 0.00870773    3.56754 173 169 169
  0.558614 -0.0336772    4.77577  70  87 118
 -0.178108 -0.0454627    4.38851 100  80  55
 0.589621 -0.059077   4.76656 176 173 166
  0.554903 -0.0661213    4.77009  60  81 109
  -0.49897 -0.0600139    4.22185 142 131 119
 -0.643431 -0.0501278    3.58053 170 167 160
  1.29781 -0.135251   4.80684 150 148 151
-0.0156852  -0.133781    4.39257 117 151 191
  1.28813 -0.172423   4.80357 106 119 140
-0.749875 -0.120292   3.54791 173 168 158
 0.765684 -0.210679   5.04345 44 55 78
-0.686924 -0.144877   3.58048 99 80 73
 0.214342 -0.189926   4.51678 141 160 179
-0.672088 -0.167587   3.61857 168 165 149
-0.471216 -0.238927   4.30093  98 104 117
0.0986505 -0.315524   4.54733 50 63 88
-0.0304017  -0.330191    4.58087 122 152 192
-0.643232 -0.263467   3.59457 170 153 133
  0.62383 -0.462249   5.20288  93 108 138
-0.0959549  -0.441918     4.7475 102 141 187
  0.99561 -0.522059   5.32957 120 120 137
 0.996539 -0.573109   5.33342 77 76 89
 0.297944 -0.601405   5.00767 206 240 254
-0.0458768  -0.575823    4.80625 127 149 189
-0.261183 -0.583566   4.80338 121 119 129
-0.520643  0.900459   3.82221 75 87 99
1.26178  1.0628 4.58661 103 113 127
-0.131479  0.953228   4.18346  76  93 112
 1.5661  1.0107 4.46572 56 67 87
-1.00187 0.448858  3.28285 166 147 114
-0.635324  0.761765   3.39888 128 130 137
 1.26641 0.617777  4.68709 118 118 107
-0.789552   0.74994   3.32925 149 147 152
0.0585984  0.555042   4.26885 150 147 144
1.23769 1.02889 4.66635  95 102 122
-0.991783  0.441668    3.2916 71 63 72
-0.843224  0.711896   3.30947 158 151 142
0.864563 0.610474  4.75404 139 132 126
-0.0110957   0.866831    4.13426 104 115 135
-1.01853 0.435184  3.29084 151 131 112
 1.20703 0.970821  4.71954  84  93 106
0.632601 0.585214  4.64443 141 140 141
 1.33821 0.933529    4.534 104 119 133
-0.332682  0.528052   4.18759 83 74 76
-0.967416  0.680964   3.25758 182 163 129
 1.51418 0.572458  4.54251 106  85  94
 1.46519 0.917621  4.46073 115 123 126
-0.980689  0.422845   3.31741 85 67 42
 1.41005 0.906457   4.4072 110 125 139
-0.985116  0.419556   3.31064 185 175 132
  1.6493 0.925588  4.52829 114 115 130
0.213374 0.517799  4.37954  98 110 131
 1.61654 0.927278  4.52719 119 124 126
0.622757 0.537743   4.6397 98 90 87
-1.05925 0.662608  3.20156 173 156 127
0.814747 0.548015  4.73843 137 130 113
0.301422 0.846453  4.32208 47 65 93
 1.46576 0.524316  4.52378 118  91  95
 1.19019 0.929916  4.74849 102 108 120
 1.03127 0.548846  4.82107 123 120 118
1.38306 0.87521 4.49817 116 127 138
0.477629 0.504905  4.47733 134 131 120
-1.04221 0.638973  3.23345 183 171 156
  1.7936 0.538088  4.69725 133 119 102
0.348654 0.825718  4.31548  97 101 113
0.152726  0.48451  4.30919 149 141 121
 1.42145 0.855436  4.42529 129 138 136
-1.03655 0.381719  3.29909 94 77 73
-0.929166  0.638522   3.28839 133 102  76
0.334737 0.486927  4.40425 133 122 103
 1.03055 0.908997  4.81636  70  83 102
1.66849 0.51736 4.61108 148 133 109
-0.255879  0.786356   4.17737 105 104 115
1.01608 0.53339 4.85141 117 112 100
0.0418919   0.77229   4.17827 95 93 94
0.000449744    0.464067     4.23767 142 132 125
-1.01925 0.615632   3.2512 197 184 160
-0.106982  0.470181   4.30631 123 114 107
0.0857503  0.769932   4.21347 64 64 63
-0.990374  0.373925   3.31262 133 127 125
0.445385 0.797144  4.39453 97 90 90
-0.661973   0.38636    3.4804 103  84  79
-0.659883  0.632387   3.42708 96 69 62
 -0.2905 0.456776  4.22088 84 69 72
 1.11542 0.865726  4.82445 73 64 68
0.316936 0.472378  4.39561 137 115  87
0.326555 0.776919  4.33848 114 112 114
 1.18738 0.520456  4.83311 104 101  92
-0.643009  0.624956   3.43628 154 146 137
0.458092 0.477687  4.46149 139 136 132
 1.18554 0.858836  4.78917 73 77 72
 1.01958 0.517496  4.83427 77 65 60
 1.64913 0.820951  4.58471 11 14 18
 1.35955 0.493013  4.56993 75 72 65
-0.948606  0.597561   3.28986 183 168 144
-0.158794  0.461961   4.33798 129 122 102
-1.06545 0.584653  3.21786 183 168 141
1.37877 0.48746 4.53997 81 78 74
0.203535 0.754537  4.31225 93 79 53
0.80306 0.50279 4.73949 149 138 116
0.0853038  0.731379   4.22288 88 87 90
 0.76805 0.500145    4.727 150 138 117
 1.16068 0.832407  4.80452 105 111 120
 1.13864 0.515234  4.89355 26 32 48
-0.28471 0.711809  4.16862 114 114 118
0.703072 0.493365  4.69195 134 134 126
-1.06598 0.558909  3.24255 184 170 148
0.259763 0.457979  4.35452 71 60 46
1.64798 0.76513 4.59601 15 13 22
 1.61812 0.489323  4.59826 143 136 120
0.325417 0.714835  4.35425 130 131 122
 1.43964 0.483308  4.53896 145 125 102
-0.597337  0.569939   3.46528 159 154 150
 1.40042 0.477943  4.50202 86 79 79
0.347343 0.700287  4.35543 90 89 90
 0.19398 0.454186  4.34742 78 63 45
 1.18278 0.767072  4.79872 84 87 81
-0.0158627   0.440958    4.23583 149 145 137
0.374421 0.683401  4.36221 135 139 135
0.165442 0.447131  4.30619 100  77  61
 1.30278 0.729786  4.62595 84 98 97
0.150004 0.444214  4.28609 107  84  76
 1.45336 0.702404  4.49658 150 148 147
0.987983 0.499221  4.82698 141 138 131
  1.7611 0.727621  4.64455 139 134 125
-0.136699  0.438477   4.29027 126 124 108
0.347214  0.66875  4.36552 90 90 87
0.0177538  0.436246   4.26895 137 130 127
-0.631628  0.536634    3.4593 168 160 149
 1.60031 0.472949  4.60558 152 134 100
0.324873 0.655454  4.36426 132 133 131
0.421759 0.448881  4.45435 150 146 133
 1.72833 0.697069  4.62944 123  97  96
0.044465 0.428201  4.26969 158 156 145
0.346992 0.642639     4.37 91 91 92
-0.189406  0.426136   4.26422 107 102  97
 1.52978 0.672328  4.52404 94 80 70
-0.746807  0.352322   3.44649 56 52 39
1.11227 0.69239  4.8565 76 64 66
 1.53585 0.463092  4.57613 152 147 129
0.148345 0.606362   4.2719 136 134 121
-0.207757  0.424599   4.25623 113 108 103
0.302186 0.592927  4.37961 65 76 92
 -0.7309 0.348504  3.45482 77 65 59
0.256641 0.594967  4.37765  81  97 130
-0.481024  0.397052   4.12636 107 105 105
 1.73122 0.641252  4.64581 116  93  96
-0.62322 0.391541  4.05738 134 121 104
0.189054 0.587306   4.3398  76  93 129
-0.633273  0.390549   4.05997 127 118  98
 1.76063 0.633741  4.65748 152 150 140
0.458452 0.422885  4.47456 157 143 123
-0.337485  0.559698   4.17411 79 70 66
1.57265 0.43803 4.59285 156 147 123
-0.758175  0.462664   3.41754 172 156 136
0.935399 0.450589  4.82102 153 152 148
-0.58641 0.539478  4.06255 65 60 58
 1.07294 0.455408  4.88154 127 126 118
  1.1124 0.638465  4.86949 70 61 70
0.590274 0.432648  4.65265 150 150 148
-0.856022  0.450946   3.39145 135 151 172
-0.575443  0.380623   4.09307 50 50 49
0.373731  0.56385  4.38504 151 148 146
-0.676784  0.328281   3.49321 115  94  89
0.148714 0.551467  4.28579 142 140 129
-0.685243  0.328713   3.48455 119  98  87
-1.06486 0.435548  3.27217 165 160 147
-0.710813  0.324741   3.46893 113  90  82
 1.49703 0.583319   4.5333 156 154 139
0.844295 0.433012  4.77651 135 133 109
 0.99193 0.599657  4.80834 132 129 125
 1.73988 0.421052   4.6916 82 80 91
 1.72965 0.585939  4.65215 86 66 57
0.881556 0.422387  4.80188 83 67 70
 1.52415 0.575455  4.55051 115  90  84
 1.69815 0.415198  4.64777 90 91 96
0.809697 0.584369  4.73313 149 145 136
-0.623738   0.35866   4.07569 131 128 120
 1.35505 0.566704  4.56354 127 125 120
-0.998353  0.301222   3.32885 107  87  79
0.575664 0.558378  4.61408 143 138 128
-0.712762  0.309107   3.47064 129  97  83
 0.34612 0.523822   4.3983 96 92 87
 1.44331 0.395895  4.51451 158 151 139
 1.11153 0.579216  4.87966 81 74 76
-0.60334 0.357441  4.08597 119 107  98
  1.6542 0.548328   4.6152 154 144 119
 1.53503 0.399166  4.58641 96 89 98
0.372297 0.512325  4.39946 147 144 134
-0.996753  0.296516   3.33456 109  89  82
 1.54053 0.535505  4.56476 158 149 130
  1.4861 0.393034  4.54986 97 94 93
-0.159524  0.493316   4.28741 142 135 127
0.610826 0.397004  4.66845 152 140 125
-0.75816 0.401148  3.43052 171 158 143
-0.50129 0.354406  4.13722 133 129 120
 1.25649 0.536784  4.71723 71 59 57
-0.661405  0.299145   3.50269 136 104  93
-0.285435  0.476354   4.21526 145 137 132
1.56816 0.38712 4.60793 163 157 141
-0.345371  0.471323   4.19086 133 134 129
 1.35536 0.380741  4.56316 13 29 44
-0.463907  0.461239   4.12466 143 139 131
-0.274006  0.347508   4.23621 145 151 149
-0.496076  0.458187   4.09984 139 137 130
-0.845848  0.284569   3.40637 143 123 105
-0.533031  0.453586   4.09995 132 128 119
0.663373 0.377848  4.70657 98 79 71
-1.06563 0.373355  3.28129 170 164 148
-0.367311  0.336779   4.18466 143 145 140
-0.59349 0.447721  4.07447 138 131 128
-0.577914  0.333937   4.11837 123 102  88
-0.782545  0.382382   3.42365 169 151 139
-0.270564  0.339078   4.24526 61 69 79
 1.45969 0.493101  4.52271 95 78 64
-0.851865  0.278433   3.40149 173 152 125
 1.78894 0.485688  4.70868 113  88  80
-0.34794 0.332714  4.21485 80 82 93
1.73451 0.47868 4.66882 115  94  91
-0.458176  0.329812   4.16277 142 141 138
-0.111523  0.428548   4.29475 117 115 107
 1.79658 0.377107  4.72566 154 153 133
0.943855 0.293079  2.82629 124  94  87
0.446919 0.349571  4.47994 151 149 138
-0.600002  0.354468   3.52006 167 163 154
-0.843069  0.274024    3.4012 131 114 100
  1.3708 0.454151  4.55434 112  96  97
-0.278909  0.332427   4.25433 148 149 147
-0.758006   0.33892   3.44343 169 160 136
-0.292694  0.331282    4.2542 151 150 149
0.382902 0.420736  4.41198 150 145 133
-1.00973 0.269832  3.33407 112  89  79
-0.566363   0.39468    4.0987 134 128 114
-0.546613  0.320809   4.10474 136 134 130
 1.13217 0.465172  4.91002 149 156 160
 1.13725 0.377909  4.91789 64 54 76
-0.298443  0.401332   4.23139 100  82  82
-0.593322  0.316011   4.08764 140 131 126
 1.54021 0.437674  4.58327 163 148 114
-0.609492  0.313263   4.06927 134 131 123
0.303847  0.41181  4.37056 148 147 137
 1.53367 0.350337  4.59835 164 159 133
0.975605 0.439262  4.84944 47 51 65
-0.572056  0.310059   4.10292 69 72 80
-0.0958572   0.391736    4.29821 113 101  86
-0.587397  0.308134   4.09049 61 64 71
-0.539947  0.378818   4.11467 66 59 52
-0.95882 0.261046  3.36253 117  92  83
-0.582858  0.372361     4.095 96 79 78
0.139133 0.319744  4.35137 158 157 156
0.364261 0.397637   4.4104 140 124  98
-0.291387  0.301176   4.25138 154 149 146
-0.285476  0.375346   4.23613 145 137 125
 1.09783 0.342233  4.92208 84 72 83
0.596335  0.40918  4.66878 58 59 70
-0.101111  0.295139   4.34683 84 71 69
-0.197254  0.369882   4.26641 128 118 102
-0.255896  0.282744   4.26948 156 155 135
-0.530813  0.352038   4.12122 138 128 116
-0.343366  0.281988   4.23266 152 155 142
 1.10781 0.409238  4.91271 103  87  85
-0.700868  0.237362   3.48892 106  85  83
 1.19615 0.370421  4.87045 24 24 40
-0.318394  0.278095   4.24654 80 69 65
-0.31936 0.318532  4.23638 157 156 154
-0.715065  0.233603   3.48827 106  89  79
 0.40749 0.331944    4.474 111  99  90
-0.725574  0.231272   3.48545 115  95  86
 1.72449 0.351505  4.69946 136 111 106
0.879661 0.300251  4.82317 105  82  85
-0.56758 0.294573  4.12169 149 146 140
-0.991811  0.215668   3.35539 30 40 41
-0.650089  0.243271    3.5153 90 75 72
-1.01754  0.21379  3.34324 63 63 67
0.0499423  0.288252   4.31165 119 109 102
-1.04391 0.210455  3.33095 41 47 48
 1.23171 0.317962  4.79656 124 122 118
-0.699521  0.212323   3.49845 142 112  98
-0.760863  0.231771    3.4588 156 149 143
 -0.7151 0.210873  3.49293 129 100  91
 1.25145 0.309392  4.75855 115  99  96
 1.50011 0.264184  4.58227 156 140 113
-0.774732  0.226892   3.45285 158 145 129
0.638628 0.269123  4.71341 162 149 130
-0.339841   0.26187   4.23262 82 68 69
0.688871  0.26354  4.74457 107  86  82
0.477622  0.91273  3.93489 46 61 75
0.410542 0.904097  3.88857 44 57 74
0.142017 0.907425  3.89601 41 46 65
0.237799 0.904763  3.88122 39 51 68
-1.05146 0.766548  3.18586 178 166 150
0.532832 0.920003  3.91501 49 62 81
-0.924108  0.780628   3.25435 123 123 130
0.519959 0.921446  3.91513 66 78 97
 0.48151 0.928082  3.93821 61 78 88
0.440394 0.914904  3.87557 63 77 92
0.385534 0.907049  3.83762 59 70 90
 1.4983  0.8437 3.48234 255 254 230
-0.908987  0.788455   3.26143  84  90 112
-0.65247 0.814084  3.38268  79  92 108
-1.27758  0.81004  3.31156 121  92  81
-0.772227  0.804058   3.32567  95 108 129
-0.76043 0.804096  3.32633  95 107 129
-0.737574  0.802903   3.32582  91 103 118
-1.06336 0.775308  3.14864 107 102 106
 -1.3003 0.816171  3.27948 126  98  75
-1.29043 0.817047   3.2851 133 102  87
-0.950816  0.753688   3.01439 73 71 65
-0.0202363    -1.0294    5.08026  61  54 111
-0.730183 -0.688184    4.6294 109 121 152
-0.378364 -0.672717   4.81189 136 149 163
-0.395706 -0.626523   4.77159 110 130 161
-0.789615 -0.442633   3.59741 102  91  79
-0.197175  -0.58069   4.77653 255 253 244
   1.4547 -0.610575   5.04262 255 255 255
  1.46351 -0.599308   5.04062 131 125 171
-0.369696 -0.547154   4.70717 56 75 99
-0.182162 -0.552728   4.77188 148 156 161
 0.721505 -0.596517    5.3345 113 108 140
  1.46431 -0.560991   5.02639 112 104 178
-0.157646 -0.499885   4.77272 143 150 159
 0.723282 -0.551338    5.3225 125 128 165
 0.408318 -0.510822   5.11987  65  84 112
 0.601138 -0.496453   5.21506 103 126 154
 0.440826 -0.483591   5.10882  79  95 121
-0.645888 -0.408595   4.39626 35 51 61
 0.497796 -0.477566   5.14129 44 63 91
 1.14878 -0.50507  5.40024 126 111 141
-0.624214 -0.402758   4.40463 18 41 49
0.998759 -0.48102  5.32167 172 174 170
 0.432031 -0.454082   5.08672  79  97 132
-0.736923 -0.302192   3.59771 126 146 164
-0.620429 -0.370723   4.39859 31 45 64
  1.16053 -0.458769   5.40127 159 168 178
 0.207523 -0.357395   4.53038 255 255 244
  1.16037 -0.407001    5.3884 126 138 161
 0.212995 -0.329862   4.51824 166 159 139
  1.20638 -0.380871   5.30582 114 143 177
 0.997261 -0.378249   5.30096 167 166 170
-0.422977  -0.29053   4.31742 151 150 140
-0.580465 -0.240016   3.63348 105  84  66
-0.204981  -0.27899   4.41782 102  86  64
-0.610076  -0.22843   3.62571 172 151 116
 0.961064 -0.322608   5.31743 123  92 121
 -0.63023 -0.234368   4.20602 158 155 145
 0.196599 -0.249997   4.49618 145 131 106
-0.745232 -0.189911   3.56301 64 63 67
0.210678 -0.23897  4.51828 121 101  81
  1.19538 -0.277372   5.22432 252 255 247
 0.158815 -0.217934   4.47335 155 148 136
 0.103348 -0.208651   4.52285 24 48 68
   1.3783 -0.209033   4.80725 232 240 231
 0.110932 -0.188446   4.50742 40 61 84
-0.523428 -0.173563   4.25308 149 142 134
-0.630405 -0.167704   4.19349 149 157 155
-0.746937 -0.138657    3.5506 99 87 83
 0.541731 -0.180561   4.75728 165 161 153
 0.281722 -0.162041   4.51875 127 120 117
 0.772956 -0.155882   4.86732 171 168 156
 1.25601 -0.15772  4.83117 163 170 178
0.327431 -0.11661  4.53556 41 46 57
 0.282532 -0.111985   4.50907 118 112 114
 0.742482 -0.121451   4.85032 161 153 125
0.999679 -0.12544   4.9705 156 150 134
  1.49518 -0.119265   4.72199 63 70 83
 -0.705492 -0.0792555    3.55905 82 76 79
 -0.648516 -0.0616674    3.57957 169 169 167
  0.267465 -0.0663438    4.49304 44 63 85
 -0.916079 -0.0486926    3.44759 162 160 148
 -0.452655 -0.0593664    4.24364 121 111 102
 0.0498239 -0.0590065    4.36077 102  85  70
  0.939706 -0.0709636    4.93747 160 162 147
 -0.645506 -0.0426922    4.14989 135 125 104
 -0.914948 -0.0327994    3.44077 165 160 147
-0.779003 -0.031791   3.50884 166 160 147
-0.319494 -0.040952   4.31205 95 72 64
 0.194204 -0.043126   4.42539 115  95  77
 -0.332101 -0.0390492    4.30153 110  92  85
 -0.240509 -0.0403459    4.34251 150 134 104
    1.4086 -0.0428067    4.58639  99 104 121
 -0.730952 -0.0258425    3.53448 74 64 65
 -0.344288 -0.0332707    4.29545 154 150 127
   1.44849 -0.0390568    4.63885 104 111 127
  0.266468 -0.0341233    4.46049 104  90  76
  0.901322 -0.0403023    4.95554  88 104 125
 0.0531398 -0.0306088    4.37234 144 136 117
  0.289498 -0.0316862    4.47015 106  85  69
   1.46036 -0.0356171        4.6  88  95 107
 -0.915163 -0.0177116    3.43828 163 159 148
 0.0251755 -0.0259865    4.36181 160 156 141
  0.176226 -0.0258728    4.42639 168 145 113
  0.336091 -0.0272336    4.49452 119  95  80
  0.359627 -0.0236448    4.50193 114  94  75
 0.0735949 -0.0217286    4.38553 164 154 136
  -0.95276 -0.0110011    3.42347 161 154 147
  0.407964 -0.0182852    4.52907 103  85  68
   1.64464 -0.0173497    4.78788 109 114 128
  0.431819 -0.0154334    4.54004 113  94  73
 -0.270511 -0.0125138    4.32125 104 101 100
   1.07165 -0.0160015    5.00654  61  72 101
  0.379153 -0.0119524    4.30375 159 135  98
 -0.519365 -0.0027806    4.20406 123 104  82
   -0.592626 -0.000616797      4.17018 106  83  74
  0.165784 0.00199377    4.42152 166 160 142
 -0.444391 0.00357302    4.23184 99 86 77
  -1.00032 0.00805365    3.37713 109 104  97
-0.949874  0.011854    3.4195 74 61 70
 0.973577 0.0170249   4.94831 32 32 58
  1.49352 0.0135947   4.66627 175 150 100
-0.950215 0.0226191   3.41621 62 58 63
-0.447814 0.0251397   4.22567 78 76 75
 0.135031 0.0270334   4.39954 116 101  98
 0.381093 0.0273403   4.52202 127 116 106
-0.215356 0.0289834   4.34714 141 116  99
 0.426629 0.0321059   4.54567 141 122 113
  1.80602 0.0371812   4.78529 119  97  87
  0.11794 0.0402003   4.38938 134 120 113
-0.171559 0.0436292   4.36212 148 136 122
  1.84829 0.0445936   4.80344 90 74 73
-0.711404 0.0393609   3.52776 153 142 135
    1.769 0.0476445   4.78501 157 133  92
  1.30736 0.0477577   4.71021 146 139 127
 0.344183 0.0479937   4.49043 153 146 127
0.0875974  0.050089   4.37642 173 163 144
 0.109507 0.0527819   4.39341 169 158 141
  1.49441 0.0596093    4.6417 110  81  83
-0.672888 0.0513029   3.54944 71 63 51
 0.404386 0.0619563   4.52908 171 169 156
0.766585 0.068439  4.83066 145 129  99
-0.736232 0.0575442    3.5168 87 74 64
  1.63033 0.0714457   4.70911 173 158 133
0.0404884 0.0686817   4.34577 129 118 109
0.0698957 0.0686076   4.36542 176 170 157
 0.200515 0.0725247   4.43572 153 141 122
  0.21717 0.0751119   4.43554 153 139 125
  0.34829 0.0791356   4.50315 175 165 147
0.774467 0.086056   4.7946 147 132 112
