ply
format ascii 1.0
element vertex 1186
property float x
property float y
property float z
property uchar red
property uchar green
property uchar blue
end_header
-0.032909  0.015877   4.25007 106 101  94
 -0.859881 0.00166893    3.39472 174 167 163
  0.0960505 -0.00975262      4.2871 170 157 143
  0.434032 -0.0168121    4.45872 172 158 130
-0.0109188 -0.0230155    4.25111 169 162 146
 -0.822979 -0.0191475    3.41538 173 168 160
   1.36744 -0.0517556    4.90119  69  92 128
 0.173525 -0.046573   4.33504 167 151 124
 -0.323591 -0.0535911    4.23452 161 151 134
-0.0560544 -0.0654959    4.27491 76 67 57
  0.279888 -0.0801414    4.36853 173 158 128
 -0.598804 -0.0850088    4.11855 155 150 139
 0.0720611 -0.0986503     4.2668 176 167 149
 0.902043 -0.125946   4.88604 26 44 51
-0.318393 -0.112288   4.23745 154 143 127
-0.373487 -0.118512   4.19325 153 139 120
-0.396809 -0.120561   4.18152 157 145 127
-0.443567 -0.124746   4.16551 161 148 134
-0.469389 -0.128638    4.1568 155 144 132
 -0.54512 -0.135514   4.12139 156 140 132
-0.622345 -0.144033   4.08923 152 139 124
 0.134576 -0.155723   4.35275 160 158 158
-0.640355 -0.146373   4.07629 148 137 119
-0.692185  -0.15006    4.0794 153 140 118
 -0.70975 -0.140591   3.48637 174 167 157
  1.70617 -0.201991   4.72784 55 55 54
  1.73983 -0.222468   4.66735 148 127 121
 0.219033 -0.210148   4.41507  74 102 155
 0.091526 -0.258644    4.4439  93  94 108
 0.219687 -0.281695   4.44513 58 64 71
 -0.71471 -0.221383   3.50258 118  98  98
-0.639764 -0.269541   4.20502 41 53 79
-0.433102 -0.286148    4.2438 152 146 124
-0.655765 -0.247847    3.5242 176 169 154
-0.708451   -0.2508     3.508 172 162 155
-0.578545 -0.304609   4.18775 110  99  87
-0.627981 -0.297614   3.51525 161 149 129
-0.672961 -0.304589   3.49311 161 147 123
0.608954 -0.54871  5.14315  67  82 115
0.866296 -0.57299  5.33067 44 59 84
  1.04056 -0.621783   5.50301 255 255 247
  1.30816 -0.625351   5.45452 254 254 254
0.541585 -0.62374  5.19236 54 67 95
  1.11507 -0.655228   5.36085 254 250 247
 0.711911 -0.671811   5.27817 200 238 254
0.0678993 -0.636096   4.78248 114 128 152
 0.047211 -0.690497   4.82334 117 129 149
0.0725762 -0.710841    4.8516 47 64 88
-0.563601 -0.678456   4.62967 48 62 93
-0.789597 -0.706925   4.52376  87  93 112
-0.648872 -0.762215   4.65611 46 61 92
-0.588182 -0.801085   4.71455 63 72 90
 0.317036 -0.858996   5.02667 83 80 98
-0.816364 -0.786993   4.58257 102 126 157
0.0247178 -0.888078   4.99915 33 47 54
-0.0421715   -1.00882    5.00196 26 43 61
-0.525692  0.988853   3.74375 66 76 89
-0.544703  0.973361   3.71353 73 83 98
-0.0872789    1.06293    4.06078 27 24 44
-0.939332  0.838937   3.21339 31 34 41
-0.167745    1.0568   4.09687 17 31 52
 1.7623 1.12681 4.44223 108 122 137
1.51061 1.11622 4.43596 53 63 81
1.44432 1.13607 4.51409 45 53 71
-0.0138227    1.01513    4.02755  74  89 112
1.50471 1.09886 4.44861  99 111 121
0.232011 0.948812  4.01007 58 68 79
1.59039 1.02642  4.3576 113 115 128
1.54558 1.04173 4.41965 107 120 139
-0.0258469   0.931042    4.05549 35 38 49
1.29796 1.07313   4.777 53 58 70
1.44985 1.01453 4.55244 49 53 62
0.671858 0.999858  4.50898  95 104 115
-1.10524 0.684638  3.11797 75 80 93
-0.845439  0.707816   3.25085 149 133 115
-0.958111  0.695833    3.2046 168 153 126
  1.7699 0.959909  4.46541 116 114 106
 1.77108 0.939794  4.47141 94 84 72
 1.74237 0.936578  4.46447 105  92 100
-0.337666   0.84733   4.04992 60 54 56
 1.08854 0.983448  4.72804 115 121 120
-1.04613 0.649813  3.16016 188 180 155
-1.11692 0.645258  3.14069 195 184 156
 1.64132 0.897266  4.42242 96 70 75
 1.98958 0.927261  4.59491 92 73 71
 1.70034 0.903392    4.462 102  81  78
 1.58129 0.886388  4.39989 137 140 144
-1.04008 0.639219   3.1766 120  92  82
 1.62078 0.889302  4.42698 133 135 134
-0.395201  0.803618   4.03761 107 109 115
 1.31435 0.952953  4.78312 103 113 120
0.195357 0.832845  4.22222 133 153 148
0.341543 0.839549   4.2701 59 65 80
0.790223 0.885554  4.59168 121 121 114
-0.824219  0.621352   3.28021 163 154 136
 -1.0156 0.605328  3.19495 177 157 137
-0.143252  0.778372    4.1538 114 111 107
 1.58144 0.821332  4.40274 148 143 147
 2.01042 0.855902  4.60722 134 136 126
0.990892 0.841398  4.70237 121 119 116
0.340707 0.751201  4.28395 60 71 89
-0.111577  0.732521   4.18287 107 107 104
-1.04178 0.558773  3.19535 93 72 65
 1.98907 0.797202  4.61626 91 71 72
-0.338207  0.706806   4.07633 49 41 45
1.70147 0.77009 4.48221 103  77  78
-0.825469  0.554768    3.2935 166 156 137
-0.396982  0.673798   4.06222 122 124 117
  1.0527 0.781742  4.73824 125 126 128
0.790636 0.757151  4.61415 131 129 126
 1.66199 0.726685   4.4627 151 144 128
-0.112396  0.666933   4.19125 116 111 105
 1.31414 0.760549  4.81353 117 121 129
 1.62176 0.700376  4.45578 155 150 144
 1.43631 0.713565  4.63734 113 116 110
1.58057 0.66171 4.43228 160 156 155
0.791846 0.690783  4.62588 135 136 131
 -1.0707 0.474151  3.19983 188 171 144
0.0938966  0.610438   4.16805 90 88 93
 1.31468 0.698068  4.82544 114 123 125
 1.70027 0.646481  4.50238 124  93  95
 1.58184 0.627336  4.43894 158 157 156
0.129104 0.587041    4.169 146 151 152
 1.17299 0.670532  4.82155 122 121 111
0.791082 0.627768  4.63805 141 139 133
0.726033 0.621893  4.61116 146 139 137
0.596287 0.608359  4.53212 144 137 124
  1.4056 0.627597  4.69253 115 118 117
 1.46442 0.608925  4.60718 130 132 131
-0.00790679    0.548292     4.13577 148 146 143
-0.397298  0.540116   4.08743 133 133 128
-0.206786   0.55055   4.18437 70 71 68
-0.744734   0.43576   3.35274 147 141 131
 1.93429 0.596101  4.62283 100  74  68
-0.671876  0.514061   3.96893 130 129 120
0.371204 0.555552  4.32062 147 139 125
-0.545343  0.513756    4.0215 78 79 77
 1.55311 0.572206  4.49539 139 147 148
-0.113456  0.537572   4.21726 122 118 112
-0.240659  0.527076   4.15337 146 138 131
1.58254 0.56274 4.44714 169 162 156
0.288374 0.539853  4.28812 142 134 120
 1.03924 0.591813   4.7572 143 143 140
-1.02109 0.397812  3.24027 164 157 137
  1.9789 0.567274  4.65368 113  83  82
1.26464 0.59103 4.87722 60 52 56
0.748324 0.561826  4.61196 137 133 131
0.340192 0.523744  4.32123 148 140 121
0.185509 0.509026  4.24189 149 141 124
 1.70609 0.540535  4.53336 96 69 54
 1.57693 0.530212  4.44421 165 158 142
 1.53909 0.533705  4.50538 99 85 79
0.383642 0.509532  4.31776 82 69 58
0.709467 0.542606  4.61616 149 148 146
-0.935339  0.381471   3.30659 134 148 166
 1.05604 0.544318  4.78273 135 128 112
 1.34249 0.541189   4.7929 118 116 117
0.794989 0.517797  4.66083 151 141 126
-0.332564  0.453055    4.1196 137 136 128
-0.294926   0.45348   4.14968 138 131 130
-0.376468  0.448097   4.10334 138 137 130
 1.74385 0.489316  4.54834 118 113 105
0.773655 0.501553  4.65789 101  79  65
 1.15583 0.515041  4.83225 125 124 128
 1.11202 0.511024  4.80964 133 129 130
-0.157583  0.447294   4.21572 127 124 117
-1.08701 0.337244  3.22505 158 155 146
-0.573171  0.413294   4.00294 136 133 129
 1.55056 0.461852  4.51163 144 145 135
 1.62304 0.458851  4.50672 169 156 137
0.166054 0.429735  4.21193 159 151 134
-0.188454  0.428547   4.20476 139 135 126
 1.57951 0.450784  4.47134 171 161 142
 1.01769 0.480899   4.7796 157 156 154
-0.912532  0.333042   3.32629 140 122 105
0.76792 0.45555 4.66247 159 159 157
 0.34482 0.420309  4.29987 132 117  96
-0.804071  0.324779    3.3536 91 77 69
-0.389409  0.396777   4.12103 145 138 122
 1.77923 0.435708  4.56251 154 148 141
0.0537243  0.399587   4.18451 131 112  87
0.0277232  0.398444   4.18473 143 127 100
-0.662116  0.367853   3.99901 135 131 116
-1.04818 0.300035  3.25002 90 75 79
-0.165194  0.379534   4.21218 131 128 130
-0.19628  0.37427  4.18015 136 139 143
-0.22065 0.373605    4.177 144 146 150
  1.6438 0.399951   4.5015 172 169 163
 1.57784 0.400171  4.49357 156 154 154
-0.264486  0.370429   4.15979 141 141 138
0.336822  0.37529  4.33614 145 153 158
-0.442463  0.353673   4.10015 134 136 138
-0.829107  0.288282   3.34709 163 150 129
  1.6979 0.385303  4.54733 143 121 111
 1.64201 0.379473  4.51153 128 103  98
0.189071 0.359918  4.26919 140 148 156
0.161263 0.359004  4.24476 144 149 159
 1.86862 0.387256  4.63405 80 85 97
 1.54957 0.374545  4.52987 151 150 150
0.407043 0.358725  4.37121 158 158 154
0.170164 0.339066  4.26497 128 124 119
0.150129 0.335207  4.25885 158 158 156
0.110525 0.329981  4.24025 161 162 159
-0.856805  0.258681   3.33977 165 151 132
 1.31343 0.375866  4.88296 130 139 138
 -1.1204 0.249122  3.23124 120  85  71
-0.949758  0.250466   3.29634 171 151 128
 1.61064 0.340404  4.52036 174 168 152
-0.969088  0.247362   3.29382 163 152 131
0.370855 0.325096  4.36382 158 158 150
-0.161674  0.314756   4.23786 58 65 75
-0.980554  0.244338     3.271 164 150 129
 2.00859 0.348176  4.69802 158 157 146
0.351671 0.324396  4.35469 133 130 118
0.168557 0.305339  4.27124 120 112 105
0.148805 0.305059  4.26379 164 161 159
 1.62132 0.309097   4.5269 168 157 138
0.371015 0.298131  4.37061 165 164 162
-0.552216  0.276319   4.06374  79  81 101
0.405526 0.297151  4.39066 163 162 158
-0.952302   0.22351   3.31325 158 148 130
-0.00949494     0.27961     4.18746 162 158 157
 1.31281 0.313734  4.89279 128 133 136
-0.117343  0.270912   4.27008 138 132 128
0.723421 0.294493  4.66787 162 151 132
0.370674 0.275339  4.37479 167 163 155
-0.426404  0.260376    4.1252 156 147 138
0.435698 0.266367  4.41046 164 160 149
-0.541858  0.245138   4.11509 117 135 157
 1.63549 0.266024  4.53787 121  92  88
 1.05293 0.265397  4.83181 157 154 147
-0.836565  0.187087   3.38333 157 127  96
  1.8867 0.242812  4.66146 158 152 140
0.188525 0.225629  4.29815 155 147 125
-1.04787 0.170707  3.27458 113  87  79
0.370274 0.225427  4.38251 167 165 155
0.351086 0.226484  4.37392 141 135 116
-0.54066 0.211672  4.11926 119 132 158
-0.666731  0.210909   4.03172 142 134 122
-1.12415 0.164404  3.24696 101  80  70
 2.00726 0.223639  4.72046 169 171 159
0.169094 0.205264  4.29103 136 126 116
0.149967 0.200303  4.28594 170 163 150
0.109292 0.196559  4.26084 170 165 161
0.188139 0.192165  4.30479 158 150 124
 1.31007 0.218998  4.92218 134 136 139
0.370622 0.192996  4.39022 170 166 155
 1.17977 0.210774  4.90183 146 141 126
-0.541227  0.177531   4.12599 117 134 159
-0.922187  0.139314   3.34097  77  88 112
 1.05304 0.200998  4.84602 160 153 143
  0.1669 0.179159   4.2966 127 116 104
0.148183 0.169583  4.28847 168 165 156
0.0312621  0.166387   4.23789 169 164 152
 1.36728 0.189032  4.83081 132 133 121
0.333175 0.172128  4.37468 168 161 144
-0.856032  0.128782   3.36633 163 157 152
0.789672 0.172659  4.72281 159 153 141
0.369993 0.158709  4.39465 173 167 161
0.168147 0.148608  4.30215 145 132 121
 2.00649 0.160937  4.73273 168 163 147
 0.59572 0.145313  4.61593 151 139 123
 1.18603 0.148399  4.88237 127 124 120
0.108402 0.130379  4.27913 169 167 161
 1.84423 0.137567  4.65956 171 164 146
 1.48769 0.137398  4.64613 151 153 146
0.370021 0.130633  4.39937 172 164 151
0.187538 0.125396  4.31602 166 155 136
 1.79121 0.130881  4.64271 173 165 148
1.71995 0.12824 4.60288 178 171 148
0.166984  0.11843   4.3058 139 128 115
0.733274 0.126824  4.69648 124  99  89
0.332398 0.116203  4.38556 165 157 139
-0.392655  0.111512   4.17527 160 153 146
  1.9178 0.119899  4.70529 134 106 108
1.61743 0.11603 4.55764 177 168 156
 1.04197 0.120614  4.86451 108  86  84
0.145977 0.104379  4.30013 171 161 147
0.753583 0.108994  4.72751 161 153 140
-0.427952 0.0950317   4.15766 147 140 132
-0.833718 0.0806646   3.39065 168 164 152
 0.028007 0.0969616   4.25147 171 160 149
  1.05512 0.0956803   4.86288 158 147 134
 0.253031 0.0816922   4.33496 165 158 147
-0.118673 0.0776399   4.30936 143 136 127
 0.219088 0.0772922   4.33469 164 158 140
 -1.02495 0.0603451   3.30937 160 155 148
  1.46912 0.0804887   4.67414 138 139 134
 -1.04012 0.0547623   3.30815 85 72 75
 0.791624 0.0666217   4.74192 162 150 126
 1.28707 0.064274  4.92978 122 120 111
  1.22958 0.0616665   4.91909 136 131 122
 0.293612 0.0526176   4.36992 174 163 146
-0.290112 0.0522487   4.22927 161 155 148
  2.01421 0.0541926   4.75915 171 164 137
 0.258187 0.0496756   4.36766 177 166 150
-0.678562 0.0478076   4.06003 147 139 127
-0.392967 0.0467572   4.18816 163 157 143
-0.547235 0.0450046   4.11073 97 92 80
 0.142485 0.0443058   4.31627 170 161 148
-0.344527 0.0422601   4.21269 116  91  89
-0.699432 0.0276062   3.45864 174 170 166
-0.0109712  0.0290633    4.24142 170 161 144
0.429642 0.027017  4.44383 173 165 155
-0.619597 0.0232843   4.09103 77 63 61
 0.399621 0.0222699   4.43864 175 166 155
-0.0992504   0.016117    4.31195 128 119 104
-0.834165 0.0128837   3.40427 169 167 158
 0.819413 0.0145294   4.73802 155 136 113
 0.792896 0.0124263   4.72304 148 132 107
   1.55689 0.00406637    4.55365 255 254 255
  0.720094 0.00421817    4.69624 162 146 119
  0.219262 0.00260236    4.35162 116 111 106
   0.651884 -0.00339041     4.65832 158 142 122
   -1.02616 -0.00616041     3.32284 163 155 145
   1.3541 -0.015465    4.8966  59  79 116
   1.85521 -0.0184288    4.75037 181 165 140
 0.0233159 -0.0193638    4.25588 173 161 145
-0.679471 -0.017364   4.07055 151 142 124
   1.80832 -0.0245155    4.73429 180 167 138
 -0.337635 -0.0294132     4.2345 137 114 106
   1.52539 -0.0373422    4.55476 254 254 252
   1.64795 -0.0410776    4.56255 180 161 130
 -0.612019 -0.0392997    4.09385 155 150 133
   1.62213 -0.0438938    4.55756 176 162 137
 -0.573525 -0.0410091    4.11331 143 134 129
   1.47218 -0.0601503    4.72543 43 52 83
  0.394793 -0.0638483    4.41617 170 155 129
 -0.834024 -0.0508006     3.4163 164 158 139
  0.370083 -0.0675041    4.40341 167 153 132
 -0.290689 -0.0657674    4.25041 154 140 112
  0.341558 -0.0716575    4.39539 167 152 121
  0.782267 -0.0839411    4.81687 38 48 73
  0.317282 -0.0751863    4.38253 167 149 124
  0.235175 -0.0802246     4.3438 171 159 131
  0.203261 -0.0861532    4.33051 165 155 137
 -0.881846 -0.0718758    3.41595  74  89 110
 -0.197771 -0.0970168    4.27064 141 125 103
-0.244695 -0.101398   4.25313 149 142 123
0.0122708 -0.104486   4.24551 174 167 150
-0.270564 -0.104021   4.24271 153 148 127
 0.851551 -0.136639   4.83514  99 101 108
 0.336808 -0.127334   4.44498 159 158 154
-0.522043 -0.131004   4.13203 155 146 131
 0.170186 -0.143657   4.37017 156 156 151
-0.569164 -0.136322   4.11049 148 138 128
-0.595565 -0.138522   4.10655 147 136 122
-0.834472 -0.118484   3.43124 172 162 145
 0.104539 -0.158147   4.34889 129 128 130
-0.787005 -0.187868   3.46011 113  86  79
-0.470494 -0.305839   4.23575 160 150 122
-0.189652 -0.410872   4.57518 137 154 167
  1.28764 -0.491316   5.45358 202 240 254
  1.36016 -0.497101   5.42942 25 40 66
 1.45267 -0.64384  5.50172 152 150 152
 0.608172 -0.616013   5.19962 52 66 93
  1.32904 -0.659776   5.44552 159 148 156
 0.739608 -0.644804   5.29014  93 101 116
 0.699217 -0.649982    5.2833  83  87 107
0.817847  -0.6619  5.36062 254 253 254
 0.610405 -0.662534   5.24307 78 85 99
  1.64065 -0.642054   5.01493 255 255 255
-0.240188 -0.608905   4.73568 49 56 83
-0.413036 -0.594815   4.62172  64  81 105
0.509868 -0.67507  5.21184  96 102 121
-0.184869 -0.622072   4.74039 149 153 158
 0.285425 -0.658844   4.96796 152 153 151
 0.417942 -0.688762   5.17011  94 100 116
-0.165417 -0.664114   4.74554 41 54 72
-0.303189 -0.751238   4.83697 155 145 143
-0.592738 -0.730823   4.65826 28 51 87
 0.238535 -0.816895   5.05784 255 253 239
 0.295112 -0.832764   5.01023 160 162 169
-0.494128 -0.791096   4.75718 119 125 137
-0.644714  -0.80657   4.68755  81  89 105
-0.679942 -0.812488   4.67668 106 114 127
 -0.71736 -0.814696   4.65221  99 104 123
-0.00296861   -0.889729     4.97394 39 55 60
-1.28939  2.46181  8.69852 253 247 234
0.997714  1.17492  4.56515 66 76 87
1.53338  1.0991 4.36875 55 60 83
1.37503 1.16382 4.62326 33 40 59
-0.917158  0.800745   3.22937 44 50 56
 1.7108 1.08473 4.41236 100 108 124
1.76341 1.08728 4.44081  95 108 116
0.797561  1.08019  4.40695 48 59 64
 1.0638 1.05098 4.54056 36 46 63
1.07911 1.03865 4.53037 103 109 117
-0.160715  0.945927   4.12299 56 62 73
-0.163679  0.929814   4.11636  94 101 114
 -1.0739 0.698657  3.13123 154 144 124
 1.49393 0.989732  4.45128 59 63 73
-0.416832  0.888648   3.99433  89  95 108
-0.457512  0.885581   3.98131  88  94 100
-0.691075  0.732804    3.3051 71 75 93
-0.888037  0.711077   3.21467  91  91 105
-0.900913  0.709389   3.20834  91  94 105
-0.926818  0.708877   3.20624  87  89 101
-0.949933  0.705218   3.18778 71 71 87
-1.01542   0.6949  3.15663 80 83 96
-1.08244 0.688369  3.13172 67 71 90
1.50106 0.97771 4.47291 101 110 120
-0.864331  0.705118   3.23239 152 139 117
0.0223559  0.885875    4.0877 112 113 123
1.87008 0.96841 4.52796 111 113  96
1.20648 1.02158 4.76381 67 63 66
 -0.3469 0.859916  4.02698 111 125 130
-0.382364  0.863196   4.03877 115 130 135
-0.145321  0.879245    4.1337 106 113 120
-0.628556  0.830476   3.90419 107 115 121
 1.27014 0.999538  4.80828 55 56 67
0.696917 0.940989  4.53332 111 113 108
 0.82387 0.952581  4.59373 119 123 126
-0.962374  0.659705   3.19212 144 140 128
0.946254 0.952478  4.66569 81 84 87
-0.797655  0.667728   3.28852 83 69 61
-0.976188    0.6519   3.20712  81  89 117
 1.20573 0.970216   4.7922 70 72 77
0.997232 0.945402  4.68153 77 68 70
0.679693 0.921521  4.53807 66 68 76
 -1.0723 0.637949  3.16498 127  97  85
0.800804 0.920327  4.58963 116 116 114
-0.308694  0.810128   4.07011 110 111 117
0.388305 0.849014  4.26924 75 79 79
 1.55463 0.862942  4.43635 121 130 127
-1.12924 0.609123  3.13731 173 160 129
0.990805 0.905024  4.69066 114 118 113
-0.092854   0.80222   4.17636 49 47 54
 1.96567 0.879169  4.59948 84 64 62
 1.91946 0.873202  4.56739 91 73 76
-0.337023   0.77473   4.07066 54 53 55
0.250476 0.801387  4.24796  87 116 156
0.341224 0.802818  4.27829 56 66 82
 1.06482 0.880705  4.72973 113 115 111
 0.20065 0.783601  4.23467 122 148 179
0.0789366  0.764133   4.13117 125 129 124
 1.19143 0.883304  4.81909  88 106 136
-0.308832  0.745303   4.08432 118 116 113
 1.87111 0.823263  4.56129  95  99 107
0.0769544  0.745987   4.13891 132 130 128
 1.55384 0.796765  4.44403 128 137 134
1.61072 0.79311 4.43478 146 140 138
 1.27012 0.865148  4.83102 56 49 62
0.695231 0.797525  4.55709 126 122 109
 1.86989 0.794206  4.56233  99 102 109
1.93171 0.79259 4.59158 108  89  94
 1.64223 0.759853  4.45165 96 73 74
-0.753837  0.550415    3.3242 166 151 135
0.694376 0.736074  4.57083 127 127 119
 1.64201 0.712212  4.46005 117  90  98
 1.75554 0.718639   4.5154 150 141 127
-0.337743  0.641929   4.09082 64 55 57
0.0782588  0.649283    4.1551 139 137 130
0.694395 0.692726  4.57436 134 133 126
-0.732176  0.505479   3.34625 102  81  73
-0.671183  0.578241   3.95574 123 120 107
0.0778308  0.601704   4.16011 142 141 139
 1.98819 0.665384  4.63869 71 54 61
-0.339447  0.583062   4.10526 88 75 76
0.0435702  0.586609   4.15955 133 128 123
-0.743433  0.468206   3.34765 160 138 111
 1.27126 0.674083  4.86535 67 63 72
-0.805178  0.455543    3.3314 96 76 66
0.990893  0.64618  4.73777 132 135 126
-0.615082  0.543497   3.98806 85 71 69
 1.55382 0.603865  4.47764 140 145 147
 1.20803 0.655184  4.85327 88 86 81
 1.61191 0.599103  4.46655 161 154 145
-0.311901  0.548154   4.12207 139 142 139
-0.165038  0.554892   4.18694 52 51 52
1.31488 0.63706  4.8479 108 114 110
 1.10028 0.626791  4.78581 134 127 118
-0.270253  0.542957   4.14341 77 78 76
0.952148 0.611382  4.71382 136 131 115
0.868092 0.602895  4.69022 137 133 123
 1.38531 0.604435   4.7273 115 116 110
0.684087 0.584422  4.59379 140 135 121
0.651847   0.5818  4.57759 135 129 117
-0.0959669   0.535241    4.22798 83 67 68
 1.43694 0.586934  4.66691 114 117 112
 1.86035 0.572689  4.57389 126 111  91
0.360254 0.537824  4.32257 131 118 112
 1.49117 0.562241  4.56906 119 123 111
-0.614104  0.491142    3.9975 70 55 54
-0.816356  0.409512   3.33156 115  87  74
0.784666 0.566938  4.64288 144 142 137
  1.7295 0.547976  4.53909 148 140 121
 1.52494 0.548594  4.52329 132 136 123
 1.93637 0.558303  4.63576 115  86  68
1.55492 0.53894 4.48764 136 143 136
 1.61049 0.536128  4.48246 162 154 137
-0.122662  0.503608   4.21713 126 112 101
-1.03336 0.387334  3.23713 95 72 67
0.900626 0.555094  4.71811 147 143 126
-0.0912435   0.494722    4.23592 67 54 53
 1.24961 0.566837  4.87559 130 134 135
-0.396906  0.476121   4.09405 160 166 160
    1.27 0.562471  4.88134 72 61 66
-0.429345  0.468621   4.06769 129 124 117
 1.52967 0.516548  4.50747 135 137 139
-0.330104  0.473873   4.13416 65 54 45
 1.47221 0.525386  4.62892 128 131 120
0.989427 0.535801  4.75548 142 131 117
1.85249 0.51281 4.60271 157 140 114
-0.671132  0.444429   3.97607 138 135 127
 -0.6597 0.438606  3.98991 71 62 52
1.61049 0.48585  4.4955 171 162 151
-0.217913  0.446821   4.19111 142 131 111
   1.325 0.513276  4.83974 114 121 130
0.397621 0.457103  4.31497 163 156 143
 1.92887 0.484456  4.63799 120  93  86
 1.79991 0.481502  4.57727 156 148 126
 1.81908 0.479046  4.58062 152 146 126
0.939552 0.494441  4.73039 123 125 125
-0.250648  0.430384   4.15594 144 135 127
-0.454415  0.421684   4.07854 143 132 112
 1.32355 0.494724  4.84331 53 60 73
0.946197 0.475294  4.74723 65 72 77
-0.224546  0.418965   4.17772 140 133 125
 1.27005 0.483806   4.8977 75 68 67
 1.86348 0.445356  4.60492 145 144 132
 1.56143 0.434195  4.46929 105  92  85
 1.24962 0.475303  4.89839 139 141 145
-0.104557  0.403286   4.23346 79 62 49
 1.05111 0.452439  4.79464 146 143 132
0.989994 0.448203  4.77629 151 146 139
-0.944016  0.306573   3.28705 167 159 134
0.0548441  0.378569    4.1669 144 136 118
0.0152339  0.377829   4.17804 149 140 126
 1.99363 0.418626  4.69266 139 117 113
 1.06399 0.426248  4.80719 149 143 133
2.00704 0.40739 4.68511 153 153 142
-0.86246 0.285421  3.33559 163 149 135
 1.24777 0.413346  4.90468 144 143 147
-0.77426 0.283836  3.37407 116  81  68
-0.0117509   0.348212     4.1686 142 147 151
0.333176 0.358354   4.3421 151 153 145
 2.02173 0.382023  4.70167 154 156 145
 1.56931 0.363212  4.47105 148 156 153
-0.0979117   0.345098    4.26349 63 58 63
-1.02352 0.264725  3.26673 161 148 132
-1.04976 0.254687  3.25971 123  98  90
-0.341628  0.322153   4.15758 85 72 77
 1.55124 0.343241  4.52262 155 159 149
-0.935121  0.251057   3.31542 156 143 127
-1.13283 0.245133  3.22134 134 100  96
 1.06418 0.362217  4.82418 154 147 133
0.437753 0.329781  4.39752 165 159 155
-0.735762  0.251097   3.39696 82 74 77
-1.00371 0.241891  3.26351 165 156 132
-0.793195  0.245783   3.37708 88 78 79
-0.649784  0.288255    4.0232 63 55 54
-0.700333  0.244329   3.41676 166 161 145
-0.127196  0.302271   4.25866 135 130 120
-0.313924  0.282993   4.17391 153 145 141
 2.02058 0.317825  4.71285 157 160 145
 1.64133 0.307389  4.53259 148 120 112
0.351944 0.293889  4.36277 136 128 118
0.988522 0.320872  4.79289 158 154 146
0.0333227  0.282588   4.21318 166 164 158
 -1.0939 0.213126  3.24861 68 63 67
-0.0989426   0.274293      4.278 69 59 56
 0.33439 0.270188  4.35914 162 155 143
-0.67881 0.244353  4.01685 138 131 111
-1.15251 0.195419  3.22161 139 135 122
-0.343039  0.244044   4.17305 90 73 77
-0.113459   0.24559   4.27549 89 77 68
 1.20267 0.274783  4.91273 108 105 101
0.333577 0.243715  4.36232 163 155 138
-0.127196  0.237227   4.27054 136 130 119
-0.427324  0.216412   4.13708 152 142 133
0.032889 0.220474  4.22497 168 163 159
-0.787876  0.175938     3.384 166 162 152
-0.0997343   0.218227     4.2876 49 45 39
-0.313841   0.21535   4.18646 156 150 142
-0.401571  0.209357   4.14899 154 148 145
0.940195 0.241662  4.78806 109 107  96
0.333029 0.220189  4.36549 164 157 139
-1.10759 0.163328   3.2537 106  81  71
-0.524649  0.207381    4.1286  56  79 110
-0.100397  0.200672   4.29397 94 77 75
 1.98601 0.223378  4.71769 112  89  98
 1.61033 0.210246  4.53817 177 171 163
0.0327451  0.195596   4.23106 166 164 160
-0.427277  0.190829   4.13865 147 140 129
0.352396 0.200539   4.3822 142 133 119
  1.9055 0.210385  4.68366 172 165 151
-0.343648  0.182989    4.1814 74 63 59
-1.02975  0.13968   3.2636 83 86 93
 1.86179 0.195962  4.66648 126 118 105
 1.69598 0.188318  4.58049 127 104 111
 2.01614 0.191757  4.72895 164 167 148
0.987368 0.195399  4.81839 157 153 139
0.510782 0.174496  4.45663 171 167 155
-0.618353   0.15708   4.06577 91 71 65
-0.427571  0.158046   4.14579 146 136 125
 -1.0025 0.125076  3.30375 139 143 128
 1.29585 0.180562  4.94367 79 70 67
 0.45315 0.161055  4.43671 136 125 120
-0.314449  0.151878   4.20004 158 151 134
0.352299 0.158011  4.38736 143 135 126
1.06054 0.17023 4.85412 156 146 133
-0.402463    0.1427   4.16288 159 149 140
 1.28122 0.167988  4.95754 132 134 123
 1.54938 0.150196  4.55826 170 169 160
 1.60963 0.146825  4.54975 178 172 163
 1.57754 0.141956  4.52568 181 177 176
-0.428236  0.127493   4.15263 147 140 129
-1.05015 0.101952  3.29063 85 76 86
-0.59117 0.123426  4.07988 149 146 126
 1.04805 0.140397  4.85059 151 147 135
1.00122 0.13505 4.82245 150 143 124
 2.01989 0.131549  4.74849 166 161 145
-0.678521  0.112435   4.04213 148 135 114
0.482307 0.117109  4.46333 169 163 152
 0.43899 0.109481  4.43668 172 166 154
-0.779291  0.337652   3.36026 113  90  82
0.961431 0.473568  4.74701 135 133 109
-0.401555  0.408397   4.10205 118 110 108
 1.99571 0.453433  4.65949  96  95 102
  1.9412 0.450883  4.65393 82 80 91
 1.00423 0.461607  4.77556 83 67 70
  1.8943 0.444332  4.60794 90 91 96
-0.696825  0.380868   3.97807 131 128 120
-0.781585  0.320544    3.3621 129  97  83
  1.6138 0.423937  4.46803 158 151 139
-0.674429  0.379714   3.98857 119 107  98
-1.07515 0.306654  3.24303 108  89  84
 1.71637 0.427536  4.54485 96 89 98
-1.08352 0.304154   3.2329 109  89  82
  1.6618 0.420744  4.50583 97 94 93
 1.20962 0.455625  4.86976 54 61 74
0.695051 0.432117  4.62252 152 140 125
-0.56183 0.377263  4.04085 133 129 120
-0.929406  0.305469   3.29235 157 148 129
-0.726265  0.310035   3.39219 136 104  93
 1.75318 0.413983  4.56739 163 157 141
-0.518235  0.367546   4.07147 134 122 103
-0.818646  0.300906   3.35631 50 48 35
-0.308521  0.371199     4.143 145 151 149
-0.782625  0.298806   3.36795 132 101  89
-0.924591  0.292677   3.30254 143 123 105
0.755472 0.410613   4.6655 98 79 71
-0.412706  0.358405   4.08903 143 145 140
-0.646984  0.353896   4.02223 123 102  88
-0.931008  0.285917   3.29788 173 152 125
-0.391421  0.354194   4.12103 80 82 93
-0.514206  0.350126   4.06719 142 141 138
 2.00356 0.401624  4.68801 154 153 133
0.506439 0.376325  4.41041 151 149 138
-0.92156 0.281149  3.29741 131 114 100
-0.314297  0.354419    4.1625 148 149 147
-0.329828  0.353104   4.16255 151 150 149
-1.09755 0.275083   3.2327 112  89  79
-0.611898  0.339218   4.00735 136 134 130
-0.663562  0.333532   3.99022 140 131 126
-0.681145  0.330242   3.97125 134 131 123
 1.71575 0.373096  4.55699 164 159 133
-0.640258  0.327096   4.00592 69 72 80
 -1.0446 0.266084  3.26102 117  92  83
0.127988 0.344068   4.2349 132 119 120
0.15736 0.34145 4.26567 158 157 156
-0.673737  0.317448   4.02179 146 143 141
-0.328372  0.319199   4.15942 154 149 146
 1.25157 0.370384  4.91008 84 72 83
-0.564283  0.302589   4.05005 138 132 117
-0.114459   0.31352   4.26096 84 71 69
-0.288628  0.298659   4.17844 156 155 135
-0.386658  0.297344   4.13998 152 155 142
-0.769527  0.242053    3.3802 106  85  83
-0.358761  0.293125   4.15453 80 69 65
-0.785037  0.237884   3.38012 106  89  79
-0.796457  0.235281   3.37773 115  95  86
 1.00331 0.322561  4.79744 105  82  85
-1.05266 0.219765  3.26681 58 64 69
-1.07989 0.216457  3.25459 30 40 41
-0.389507  0.275077    4.1444 66 59 53
-1.10674 0.214198   3.2425 63 63 67
-1.13414 0.210344  3.23014 41 47 48
-0.732581  0.220019   3.41104 145 117 105
-0.768417  0.214612   3.38981 142 112  98
-0.78532 0.212956  3.38491 129 100  91
0.727997 0.286773  4.67134 162 149 130
0.785663 0.280545  4.70677 107  86  82
0.980022 0.283658  4.79356 159 149 133
0.486863 0.264009  4.43186 173 169 150
0.726548 0.273783  4.67302 104  86  82
-0.29057 0.238933  4.19425 158 152 140
-0.928511  0.187681   3.31595 157 155 142
1.28506 0.27355 4.93784 167 172 161
0.486735  0.24478  4.43738 169 166 152
-0.780146  0.185418   3.39071 151 111  79
 1.25102 0.266298   4.9327 87 72 76
-0.709496  0.185571   3.42409 160 153 141
 1.75449 0.247382  4.60022 169 161 145
0.742278 0.251077  4.68951 98 72 66
 1.65006 0.241113  4.54888 150 139 125
-0.613886  0.213945   4.05261 82 64 66
-0.884063  0.173813   3.33577 135 108  84
-1.09733 0.167737  3.25391 125 102  85
-0.0849465   0.218641    4.29256 122 116 107
-0.662228   0.20326   4.03346 139 140 125
0.155469 0.212764  4.28694 168 162 151
-0.879295  0.167106   3.34064 152 144 134
-0.565498  0.197768   4.07264 153 146 137
0.608909 0.221501  4.65564 110 133 156
-0.75529 0.158183  3.38049 155 155 153
0.978938 0.222579   4.8073 161 151 139
 1.29361 0.222761  4.93915 70 61 75
 0.48641 0.199786  4.44749 170 162 145
-0.675013  0.150548   3.42149 131 136 139
-0.290899  0.183803   4.20418 155 152 141
1.84599 0.19916 4.67989 128 145 133
 1.40245 0.205474  4.77927 140 140 135
-1.09941 0.133172  3.24566 88 89 97
0.486135 0.171191  4.45354 171 164 147
-1.14859 0.121564  3.23213 136 146 148
0.0817519  0.156605   4.26152 171 168 156
-0.11309 0.152767  4.29431 145 138 123
0.884003 0.160955  4.76491 91 79 74
0.0681455  0.135878   4.25926 127 114 108
-0.730985  0.109652   3.42799 112  92  88
0.485555 0.135485  4.45925 170 160 144
 1.52493 0.134509  4.58907 159 163 157
-0.821098 0.0958888   3.39494 59 55 52
0.0220177  0.114258   4.24258 153 147 140
 1.55702 0.114673  4.53379 185 172 170
 1.48131 0.116936  4.66344 117 109  99
-0.810629 0.0845386   3.39755 113  95  87
 1.05808 0.118978  4.86184 146 140 123
-0.750948 0.0835861   3.42311 92 70 56
0.689623 0.101087  4.66832 142 129 112
 0.796326 0.0917483   4.73643 152 145 133
 0.342316 0.0833277   4.39204 151 145 132
-0.566856 0.0780432   4.10037 157 149 136
 0.671386 0.0848965   4.67296 164 151 132
-0.817938 0.0598727   3.40163 173 173 152
 0.183785 0.0745235   4.32468 128 112 106
  2.01375 0.0805344   4.75176 166 163 130
-0.389084 0.0699585   4.18707 78 66 64
 -1.06257 0.0523438   3.29802 100  87  84
  1.49924 0.0650004   4.62629 244 233 194
 0.737424 0.0591568   4.71821 120  92  86
  1.02138 0.0518248   4.83655 86 73 62
  1.72519 0.0480049   4.61507 159 152 127
 0.926156 0.0415881    4.7909 92 75 66
0.404914 0.036911  4.43119 111 103  99
 0.852576 0.0336011    4.7566 90 75 57
 0.293044 0.0280618   4.37455 158 150 134
  2.03973 0.0243515   4.75514 109  90  81
 0.587032 0.0233501   4.64668 144 120  88
-0.783296 0.0154238   3.42281 157 140 136
 2.05027 0.015578  4.74843 170 162 148
0.685202 0.014586  4.68195 73 64 43
-0.143453 0.0126902   4.29757 147 138 124
 -0.482159 0.00966812    4.13594 114 106  98
  1.41797 0.0100391   4.71916 148 146 140
  0.636416 0.00934786    4.65688 81 67 51
 0.110338 0.0056188   4.29837 121 113 107
  0.196964 0.00266534    4.33937 161 157 144
   1.07887 0.00172412    4.90541  71  85 114
  0.488545 0.00210139    4.48568 172 166 145
   0.434488 -0.00354301     4.45672 169 163 135
   0.205854 -0.00358133     4.35423 160 152 134
    1.80356 -0.00592027       4.647 126  97  86
  -0.522767 -0.00648729     4.13832 143 134 119
    1.77948 -0.00860954     4.63535 123  95  80
   1.07724 -0.0117923    4.90754 159 166 165
   1.75664 -0.0112962    4.62518 124  95  77
   -1.08274 -0.00876879     3.28834 102  92 100
  1.70734 -0.017456   4.60053 126 100  81
  0.518745 -0.0175651    4.50248 154 136 103
  0.949193 -0.0202754    4.84303 152 154 156
 -0.432939 -0.0193732    4.17473 156 149 131
 -0.319794 -0.0308327    4.23161 145 143 136
 0.175088 -0.033642   4.34057 162 158 146
  0.426061 -0.0375821    4.45347 156 133 101
 0.0595482 -0.0369802    4.28316 155 138 120
   1.89997 -0.0430358    4.73556 138 154 176
  0.869898 -0.0483953    4.83961 109 146 181
   1.73451 -0.0467084     4.6195  98 101 107
0.00473725 -0.0426637    4.25748 143 133 118
   1.24615 -0.0537375    5.04183  84  98 126
    1.2209 -0.0554444    4.99464  65  73 101
 -0.520857 -0.0455117    4.14102 159 143 117
 -0.693803 -0.0468171    4.06761 146 136 120
 -0.607521 -0.0525932     4.1116 60 59 59
 -0.791708 -0.0473168    3.43485 58 57 65
 -0.664383 -0.0582628    4.08611 71 67 61
   1.44124 -0.0810816    4.76895 255 255 223
 -0.351842 -0.0781709    4.22317 152 134 108
 -0.716058 -0.0627215    3.46662 172 161 158
 -0.543277 -0.0814081    4.14181 154 143 125
 0.139587 -0.088313   4.30282 171 163 143
 0.789682 -0.100831   4.82762 118 124 135
  1.49573 -0.100773   4.72731 100 109 140
  0.205434 -0.0949697    4.33266 169 155 129
  1.20776 -0.123866   4.99959 130 119 110
-0.490808 -0.106406   4.15492 139 127 104
 0.760286 -0.128652   4.84992  79  88 104
  1.43946 -0.127586   4.77493 255 255 217
  1.49447 -0.129343   4.75979 100 116 133
0.320491 -0.12178  4.43367 115 115 117
-0.566486 -0.113678   4.12587 137 124  99
-0.158962  -0.12803   4.32641 126 144 168
-0.177014 -0.130053   4.33065 124 140 162
 0.311051 -0.134378    4.4314 156 151 143
 -0.71512 -0.128815   4.05995 140 116  84
 0.814294 -0.153088   4.80566 165 158 141
  1.19581 -0.159537   4.97906 150 145 132
-0.137655 -0.142767   4.36193  73  91 121
-0.156263 -0.148113    4.3478 137 153 163
-0.757458 -0.118661   3.46313 125 105 101
 0.544631 -0.164621   4.67595 162 158 137
  1.71883 -0.167801   4.70045 161 171 162
-0.520122 -0.147207   4.12828 101 101 116
   1.7089 -0.171071   4.70786 42 57 73
 -0.78469 -0.125257   3.45584 122 103 102
-0.306652 -0.165874   4.28637 51 69 93
  1.71184 -0.194606   4.71615 140 140 117
-0.819129 -0.161453   3.44819 164 168 147
  1.52459 -0.227905   4.81093  95  90 171
-0.798617  -0.16615    3.4597 114  99  88
0.0912943 -0.219883   4.41233  79  93 117
  1.63247 -0.238425   4.71233  71  82 111
 -0.43229 -0.218857   4.23136 163 163 157
 0.240837 -0.251531    4.4541 149 169 183
 0.105983 -0.257171   4.44574 103 108 126
 0.319798 -0.265181   4.46635 94 80 72
 0.639441 -0.299881   4.92472  79  94 123
-0.709526 -0.215797   3.50098 78 70 83
-0.735493 -0.218879   3.49352 67 64 72
-0.764239  -0.22129   3.48728 71 68 73
-0.793064 -0.224524   3.47311 76 72 77
 0.614025 -0.320731   4.93295 15 40 60
0.668307 -0.32513  4.94781 29 40 55
0.106577 -0.29476  4.48242 35 56 77
-0.442206 -0.278534   4.23882 128 114  98
  1.83329 -0.328031   4.88931 33 57 80
  1.36828 -0.355619   5.26513  99 107 148
 0.174858 -0.302427   4.40332 161 156 151
-0.445683 -0.291111   4.23426 149 142 123
 0.108607 -0.346265    4.4768 255 252 226
0.0931282 -0.347012   4.48822 26 39 42
 1.35601 -0.41755  5.36533  61  86 120
 0.143451 -0.349149   4.42404 142 102  89
  1.11325 -0.425506   5.34711 254 253 250
-0.629386 -0.281322    3.5193 150 146 127
-0.825073 -0.278755   3.46328 146 122  99
-0.742488 -0.294444   3.47657 169 162 140
-0.533386  -0.36314   4.20974 93 78 64
-0.805982 -0.301215    3.4543 98 77 62
  1.38428 -0.474434   5.35313  77 100 139
 0.113698 -0.423082   4.60158 44 59 87
-0.443053 -0.411708   4.44463 35 56 82
 -0.70453 -0.340113   3.53627 121 136 162
-0.716337 -0.339063   3.47582 139 150 179
   1.7035 -0.500857   4.94336  77  92 118
-0.359896 -0.466916   4.54385 37 53 81
  1.35536 -0.559134   5.43713 107  90 111
  0.24192 -0.463353   4.46948 55 45 53
 0.827044 -0.571761   5.28205 110 125 146
  1.43547 -0.606592    5.4957 154 164 162
  0.82013 -0.590129   5.30201 123 140 161
-0.738973 -0.481625   4.31762 31 49 61
-0.749325 -0.486953   4.31798  95  95 126
  1.34031 -0.617718   5.45422 154 157 170
-0.197878 -0.602098   4.72735 52 57 70
-0.198063 -0.650766   4.73772 71 70 78
-0.197633 -0.665415   4.74107 82 81 91
-0.399221 -0.700881   4.72763  68  82 114
 0.288725 -0.745567   4.98752 145 148 157
 1.6438 -0.7664 5.03828 252 251 254
0.0139023 -0.768373   4.86606 50 60 66
-0.844248 -0.748594   4.53474 34 52 79
 0.275189 -0.829541   5.00573 125 129 147
-0.624847 -0.784226   4.67983  84  98 131
 0.290722 -0.855006   5.00878 42 45 62
-0.215306 -0.819622     4.767 153 145 147
-0.867494 -0.628731   3.65543  86 104 127
-0.0616048   -1.00761    5.00716 253 252 250
-0.0254572   -1.02901    4.99402 244 248 242
-0.0147779   -1.05439    5.01112 44 58 82
-0.478098  0.960147   3.36233 135 120 167
-0.690748  0.874576   3.27292 52 62 90
-0.2741 1.02305 3.85169 33 49 61
-0.72595 0.865526  3.26649  75  87 107
0.634953  1.01246  3.84505 104 117 133
0.169994 0.987037  3.79347 40 52 65
0.80432 1.12977 4.34394  92 101 105
0.382557 0.977776  3.77058 37 54 72
0.151887 0.981074  3.82667 37 50 73
0.249634 0.981486   3.8318 37 48 73
0.837567  1.11285  4.38133 45 60 72
1.54786 1.10077 4.35773 49 64 79
0.35251 0.96408  3.8181 61 73 91
-0.518252  0.950414   3.76301 69 74 88
1.27894 1.19868 4.75539  6 27 49
0.413278  0.96901  3.84674 40 55 72
0.455844  0.97523  3.87603 51 61 81
-1.38563 0.832289  3.30427 161 125 107
 0.54834 0.978519  3.90101 49 59 82
0.521638 0.978787  3.89766 38 56 70
1.27995 1.19065 4.76193 107 110 136
1.55396 1.08195 4.35582 107 116 130
1.53791 1.08816 4.37953 105 119 131
 1.5226 1.09354 4.40007 106 119 136
1.64152 1.08251  4.3719  98 111 121
1.62923 1.08201 4.36759  97 106 113
1.60601 1.07886 4.35314  97 105 116
0.237619 0.955444  3.89247 42 61 74
 0.48543 0.966866  3.95487 26 44 55
0.209292 0.952842  3.94016 60 71 87
0.434738 0.956156  3.96531 61 66 90
 1.6106 1.06356 4.41806  98 104 111
-0.249955  0.932722   3.89405  86  94 116
0.409186 0.949414  3.99471 46 58 76
0.398476 0.947847  3.98535 38 54 72
0.370831 0.940848  3.95641 44 62 77
0.219045 0.942156  3.98758 67 73 89
0.251062 0.932531  3.96756 49 57 76
1.28353  1.1204 4.78192 123 128 143
-0.521741  0.876999   3.77485 84 83 88
-0.237724  0.900717   3.90274 47 62 70
-0.251372  0.897836   3.89477 27 43 51
-0.534208  0.868787   3.77009 32 41 47
-1.15147 0.712663  3.09878 104  91  82
-0.196756  0.937981   4.09678 55 59 68
1.13327 1.04174 4.56539  91  95 105
1.10062 1.03587 4.53843 110 112 123
-1.03028 0.720818  3.16366 173 156 123
0.837615   1.0075  4.42672 53 65 71
-0.894172  0.729984   3.22036 127 110  98
-0.931138  0.724737    3.2005 128 109  97
 0.81351 0.995593  4.40164 88 84 92
-0.479016  0.895638   3.97746 50 61 77
0.255591 0.911608  4.06812 34 56 92
0.734882  1.00486   4.5366 110 120 140
 1.45741 0.995957  4.51741  87  94 114
0.0426385  0.897599    4.0916  99 107 124
1.15858 1.03105 4.75097 67 71 66
-0.157874  0.894947   4.12304 95 92 86
1.17792 1.03076 4.75677 77 77 81
0.696973 0.980959  4.52828  99  98 101
1.14462 1.02282 4.74503 95 92 83
-0.126161  0.882748   4.12904 110 117 125
-0.656847  0.710865   3.33615 156 153 141
1.30826 1.01888 4.78836 47 50 69
1.10139 1.00288 4.72897 114 118 132
 1.2027 1.01388 4.78767 112 114 124
 1.50683 0.942957  4.46711 96 98 96
-0.823666  0.674209   3.25579 157 150 141
-0.854917  0.660802   3.25794 182 168 181
-0.0842733   0.846884    4.17071 72 66 70
 1.81813 0.907582  4.53217  0 11 66
-0.0857297   0.826647    4.17982 66 60 63
-0.412634  0.794721   4.02076 110 112 113
0.729099 0.900445  4.55787 72 65 78
0.100276 0.812549  4.14204 111 113 117
 1.04828 0.921058  4.71605 119 115 111
  1.9051 0.886747  4.56004 127 120 107
-0.760177  0.639305   3.29971 123  99  88
-0.32474 0.787718  4.06972 123 117 124
0.505208 0.819946  4.33681 138 138 134
-0.732985  0.627045   3.32027 126  94  87
0.994669 0.886434  4.69449 52 48 47
0.489558 0.808186  4.32498 134 130 130
-0.382173  0.753959   4.05522 56 59 57
-1.13206 0.581909  3.14589 140 114  91
-0.654511  0.723869   3.93095 38 41 36
0.192094 0.776706  4.22866 144 156 176
-0.381677  0.740907   4.04955 70 66 60
 1.71954 0.813557  4.48399 85 75 61
-0.986408  0.580877   3.21786 125 107  96
  1.9033 0.810685   4.5689 133 125 116
 0.99608 0.832266  4.70778 135 131 131
0.731708 0.805409  4.57643 136 134 136
1.70905 0.77487  4.4906 87 73 57
0.453402  0.74651  4.32336 135 131 116
-0.39672 0.686578  4.04549 116 109 110
-0.38258 0.686632  4.06339 40 44 44
 1.95938 0.773506  4.60113 115 104 113
-0.734629  0.560885   3.33605 109  84  76
0.739812 0.749313  4.58831 68 58 63
0.995879 0.767668  4.71805 135 131 129
  1.2867 0.775242  4.85033 162 164 165
0.442614 0.671828  4.31158 117 105  99
-0.750268  0.518778   3.33328 182 164 131
-0.709042 0.0394106   3.44855 65 49 55
  1.91012 0.0521955   4.71398 166 150 134
 1.0085 0.05362 4.82594 146 133 115
-0.703875 0.0364969    3.4538 183 172 174
   1.6515 0.0472456   4.58968 104  79  81
-0.765551 0.0339434   3.41386 168 159 137
-0.686936 0.0387214   4.05561 156 141 130
 0.887419 0.0398971   4.76697 177 162 127
 0.863561 0.0375012   4.75633 169 154 125
  2.02085 0.0373893   4.75504 158 135  96
 0.901444 0.0373476   4.78174 89 67 51
 0.839537 0.0343322   4.74664 178 163 139
 0.272746 0.0265832    4.3682 164 158 141
 0.253593 0.0239156   4.34644 161 152 141
-0.246688 0.0224977   4.25612 157 150 128
-0.354703 0.0234622   4.20944 138 112 104
  1.41555 0.0193121   4.72872 71 67 62
  1.49622 0.0158558   4.65128 255 254 208
 0.709106 0.0171732   4.69099 93 76 62
 0.646548 0.0141093     4.654 168 155 127
0.455009  0.01418  4.45823 139 122 104
 0.204709 0.0096679   4.34619 93 86 86
 -0.790613 0.00774683     3.4244 73 59 63
   1.52612 0.00732187    4.60708 255 254 227
   1.51761 0.00640553    4.61794 152 114  95
-0.0855003 0.00395905    4.34061 28 33 27
 -0.369704 0.00327459    4.21048 141 119  98
     2.0675 -0.00191891     4.75513  96  96 103
   0.968999 -0.00045249     4.86173 139 155 178
    2.09373 -0.00599127     4.77371 221 255 250
    1.49049 -0.00650179     4.62105 255 254 238
 -0.276523 -0.0174324    4.24398 148 132 110
  -0.33275 -0.0223224     4.2279 65 60 57
 -0.405541 -0.0234785    4.17276 132 123 116
   1.44574 -0.0281927    4.68686 242 245 238
0.982579 -0.02764  4.86996 44 57 82
  0.724467 -0.0272217    4.68573 142 160 185
  0.390923 -0.0272783    4.44273 157 139 104
   1.56956 -0.0321566       4.53 169 156 125
  0.669248 -0.0328723    4.73719 123 138 160
 0.243378 -0.033544   4.35273 125 112 100
-0.485009  -0.03295   4.15112 110 108 108
 0.541502 -0.042368   4.48516 171 159 133
  1.05374 -0.050087   4.93997 53 71 94
  0.800809 -0.0470369    4.77654 196 196 192
   0.36691 -0.0502357    4.40549 156 145 124
 -0.226072 -0.0532777    4.27319 170 160 144
 -0.635659 -0.0554001    4.09671 50 46 40
   0.20509 -0.0686909     4.3319 172 163 137
 -0.111708 -0.0681199     4.3239 124 103  88
 -0.798271 -0.0547293    3.42856 109  93  92
  0.179005 -0.0713746    4.32148 174 165 140
 -0.163522 -0.0722522    4.29697 134 115 100
  0.339812 -0.0775379    4.38699 186 172 138
   -0.8124 -0.0611479    3.43276 122 101  92
 0.125075 -0.076949   4.29633 161 150 132
   1.03876 -0.0931663    4.96881 50 68 84
 -0.628643 -0.0782579     4.1079 120  97  89
 0.0694527 -0.0832837    4.27031 181 171 152
  0.770964 -0.0960067    4.82055  82  96 117
 -0.492607 -0.0828295    4.15898 146 135 116
0.013378 -0.08957  4.24844 184 176 163
  1.03301 -0.106619   4.98009  6 34 48
 0.95008 -0.10465   4.8609 165 156 148
 0.310414 -0.110153   4.42718 147 150 147
 -0.817615 -0.0952337    3.43189 176 175 158
0.813652 -0.13603  4.80086 171 166 149
 0.831511 -0.145691    4.8046 153 148 136
  0.76631 -0.145876    4.8598 30 50 64
-0.648068 -0.128483   4.08051 143 131 117
-0.746019 -0.110416    3.4717 115  92  91
-0.355732 -0.146952   4.21077 136 144 169
0.309895 -0.16448  4.43796 153 153 148
  1.75348 -0.177175   4.68371 133 118 121
-0.296849 -0.166372    4.2824 171 173 177
  1.85218 -0.189245    4.7301 115 104  94
 0.860062 -0.195775   4.83147 172 168 156
  1.51327 -0.200263   4.78663 33 50 68
0.309293  -0.1888  4.44414 161 159 156
-0.657468 -0.178681   4.08115 130 140 162
  1.71626 -0.211565   4.70046 118  91  59
 0.172703 -0.198197   4.38082 165 162 156
  1.71096 -0.218139   4.70829 255 255 209
  1.82174 -0.223705   4.72364 136 137 136
-0.716687 -0.165271   3.48683 140 113 109
  1.72834 -0.226259   4.67165 253 250 240
-0.730429 -0.171423   3.48345 125 101  93
  1.78649 -0.245389   4.70435 163 149 120
  1.56629 -0.597632   5.10743 253 253 253
 0.690028 -0.616796   5.25151 126 144 173
  1.31405 -0.644853   5.44947 255 253 251
 0.863909 -0.636632   5.35159 31 50 71
  1.64911 -0.591855   4.97093  99  76 174
  1.68428 -0.598603   5.00324 48 74 89
 1.29721 -0.65322  5.46316 253 251 244
  1.36186 -0.654678   5.45951 159 153 160
  1.40092 -0.665611   5.50839 59 68 82
   1.3794 -0.669001   5.50375 71 71 92
  1.68382 -0.610542   5.00593 214 255 255
  1.10293 -0.682344   5.38059 255 253 243
-0.395734 -0.595859   4.63986  57  78 102
  1.17856 -0.690717   5.38136 15 36 48
 0.166676 -0.630392   4.83635 103 115 140
 0.826396 -0.785237   5.38674 254 254 254
0.0402164  -0.71519   4.84267 128 135 154
 0.299198 -0.751806   4.99341 111 113 131
-0.198684 -0.718551   4.75667 64 60 72
-0.314914 -0.739948   4.81209 110 110 129
 0.283517 -0.890703   5.04578 72 62 79
-0.209132 -0.871903    4.7844 161 168 171
-0.203199 -0.917911   4.78757 174 168 170
-0.0142236   -1.03215    5.00566  96  99 125
-0.0534642   -1.05215    5.01609 36 29 55
-0.0352885   -1.03566    5.01492 246 248 244
-0.190093 -0.841101   4.78267 205 195 198
-0.751286 -0.793065   4.60711 139 151 179
 0.233411 -0.845221   5.05403 255 252 242
-0.536135 -0.783711   4.73413 61 70 97
 -0.19818 -0.770625   4.76639 66 58 73
-0.406011 -0.770735   4.79402  84  84 104
 0.301453 -0.796519   4.98628 157 160 163
-0.379833 -0.755475   4.78788 182 185 192
 0.308428 -0.771677     5.001 164 171 171
 0.068267 -0.753403   4.89208 133 131 140
  1.55598 -0.593189    5.1093 254 253 255
  1.39864 -0.636112   5.47853 168 161 163
 0.127538 -0.537599   4.71877  82  99 134
  1.53928 -0.586158   5.14148 254 254 254
-0.824488 -0.388889   3.50692  94 108 132
  1.37188 -0.604724   5.45606 110  91 105
  1.38958 -0.592027    5.4502 170 168 175
  1.40745 -0.592993   5.48215 173 171 175
 0.725898 -0.562061   5.22662  64  87 114
  1.36371 -0.584542   5.44832 71 60 79
 0.738913 -0.557472   5.22971  87 105 134
 0.705235 -0.533507    5.1837 50 68 93
-0.446939 -0.453812   4.44803  4 36 44
 -0.75532 -0.320519   3.47272 165 152 129
  1.41476 -0.489776   5.30815 136 153 182
 0.267177 -0.393938   4.45927 176 162 145
  1.32529 -0.476617   5.42202 77 81 99
-0.617287  -0.30575   3.52141 164 142 113
 1.12896 -0.46219  5.33757 164 151 171
 0.265342 -0.373381   4.44805 170 163 151
 0.312716 -0.364675   4.47781 162 151 129
-0.658662 -0.284262   3.50778 160 146 125
-0.495968 -0.340639   4.22653 109 108 113
-0.686261 -0.280919   3.51057 147 126  90
-0.648899 -0.281208   3.52427 149 129  92
 -0.75865 -0.277053   3.48942 170 146 107
-0.737215 -0.274378   3.47996 177 154 113
  1.15596 -0.421167   5.32623 77 67 87
 0.172216 -0.338107   4.40747 162 157 146
 0.256648 -0.316655   4.43392 119 112 108
-0.571949 -0.294609   4.18399 148 141 117
 0.270732 -0.305267   4.44064 160 156 150
-0.783087 -0.236343   3.47843 115  94  90
-0.771951 -0.234407   3.48176 118  99  95
-0.743062 -0.233649   3.49143 127 109 102
 0.296195 -0.292229   4.44697 162 141 117
 0.638203 -0.320725   4.93515  90 104 136
  1.36339 -0.322607    5.2257  76  93 120
 0.954912 -0.288554   5.07333 14 40 48
 0.089549 -0.239322   4.42651  90 102 124
  1.54186 -0.258468   4.80423 254 253 255
 0.956139 -0.268169   5.07285  1 26 55
 0.129728 0.0513448   4.30214 147 136 124
  1.05345 0.0580607   4.84636 153 140 121
  1.17037 0.0580209   4.90056 147 133 114
 0.801551 0.0612591   4.75009 160 150 125
  1.74068 0.0595547   4.60915 155 149 136
 -1.11681 0.0463358   3.26878 103  85  86
-0.627614 0.0586353   4.07775 113  93  86
0.0681316 0.0605723     4.272 131 115 106
  1.73039 0.0643282   4.60886 130 119 118
  0.69921 0.0686093   4.68696 153 146 128
  1.21386 0.0721872   4.92965 69 60 44
-1.09422 0.053998  3.28347 80 65 63
-0.397713 0.0706841   4.18052 157 150 134
  1.27319 0.0825294   4.95333 126 112 105
 1.94623 0.082419  4.73029 94 73 73
-0.353426 0.0864608   4.20076 126  98  93
-0.640557 0.0851221   4.06551 117  92  89
  1.47585 0.0970362   4.66524 75 60 59
 0.335098 0.0926205   4.39387 119 108 101
 -1.05092 0.0710004   3.30001 102  82  78
0.980602 0.109733    4.827 153 143 135
-0.423639 0.0970601   4.15836 160 155 144
-0.0926973   0.105277    4.31809 115 101  97
-0.629882  0.108316   4.06502 114  88  85
0.130568 0.113996  4.28796 159 148 129
0.951286  0.13061  4.79826 154 142 124
 1.28231 0.135793  4.96394 155 152 143
0.783389 0.131929  4.72924 124  99  85
 1.20616 0.144989  4.94252 145 137 130
-0.364105  0.125008   4.17981 117  99  96
0.864532 0.143364  4.76886 151 138 121
 1.31156 0.155939  4.89825 130 130 132
